ply
format ascii 1.0
element vertex 850
property float x
property float y
property float z
property float nx
property float ny
property float nz
property uchar diffuse_red
property uchar diffuse_green
property uchar diffuse_blue
property uchar class
property uchar detection
end_header
-2.1573 6.4752 1.4536 0.841 -0.386 -0.379 74 100 85 0 0
-2.1687 7.6163 1.3522 0.733 -0.674 0.090 56 72 63 0 0
-2.1481 7.5965 1.3539 0.668 -0.620 0.412 55 67 58 0 0
-2.1315 7.5946 1.3541 -0.633 -0.755 0.172 43 52 44 0 0
-1.9863 7.5944 1.3540 -0.685 -0.535 -0.494 37 38 33 0 0
-1.9646 7.5667 1.3565 -0.569 -0.541 -0.619 38 39 34 0 0
-1.9434 7.5408 1.3588 -0.623 -0.575 -0.530 36 37 32 0 0
-1.9226 7.5162 1.3609 -0.623 -0.575 -0.530 42 43 38 0 0
-1.9032 7.4985 1.3625 -0.663 -0.593 -0.458 57 58 50 0 0
-1.8389 7.4101 1.3703 -0.768 -0.504 -0.396 77 75 62 0 0
-1.8107 7.4284 1.3687 -0.151 -0.938 -0.313 82 80 66 0 0
-1.7662 7.3557 1.3751 0.097 -0.932 0.349 81 85 68 0 0
-1.7539 7.3743 1.3735 -0.694 -0.720 0.013 78 84 68 0 0
-1.7355 7.3588 1.3748 -0.700 -0.707 0.107 77 87 70 0 0
-1.6970 7.3158 1.3786 -0.467 -0.753 -0.463 81 97 78 0 0
-1.6782 7.2969 1.3803 -0.029 -0.866 -0.498 84 105 85 0 0
-1.6279 7.2732 1.3824 0.138 -0.667 -0.732 120 127 118 0 0
-1.6130 7.2766 1.3821 0.138 -0.667 -0.732 131 133 125 0 0
-1.5823 7.2780 1.3819 -0.144 -0.662 -0.735 120 122 114 0 0
-1.5658 7.2709 1.3826 -0.328 -0.680 -0.656 114 116 111 0 0
-1.5500 7.2685 1.3828 -0.256 -0.660 -0.706 106 107 105 0 0
-1.5339 7.2643 1.3831 -0.035 -0.624 -0.780 88 89 89 0 0
-1.5176 7.2580 1.3837 -0.290 -0.671 -0.682 87 87 90 0 0
-1.4868 7.2580 1.3837 0.257 -0.765 -0.590 109 107 105 0 0
-1.4726 7.2672 1.3828 0.867 -0.417 -0.271 116 112 108 0 0
-1.4248 7.3735 1.3734 0.880 -0.257 -0.400 127 126 121 0 0
-1.3140 7.6440 1.3493 0.352 -0.652 -0.671 48 55 84 0 0
-1.3008 7.6720 1.3468 0.680 -0.570 -0.462 49 56 85 0 0
-1.2864 7.6899 1.3452 0.859 -0.455 -0.232 49 56 85 0 0
-1.2731 7.7191 1.3426 0.847 -0.492 -0.200 51 58 87 0 0
-1.2172 7.8205 1.3335 0.593 -0.460 -0.661 57 60 91 0 0
-0.7524 7.8581 1.3300 -0.728 -0.422 -0.539 172 163 134 0 0
-0.7342 7.8147 1.3338 -0.733 -0.454 -0.507 172 165 134 0 0
-0.7166 7.7831 1.3366 -0.733 -0.454 -0.507 172 165 137 0 0
-0.6991 7.7520 1.3394 -0.679 -0.437 -0.591 167 160 135 0 0
-0.6819 7.7248 1.3418 -0.703 -0.459 -0.544 167 161 138 0 0
-0.6647 7.6953 1.3444 -0.702 -0.445 -0.556 146 139 119 0 0
-0.6475 7.6587 1.3476 -0.604 -0.396 -0.692 119 113 93 0 0
-0.6305 7.6274 1.3504 -0.537 -0.375 -0.756 89 81 66 0 0
-0.6138 7.6009 1.3527 -0.428 -0.509 -0.747 63 55 47 0 0
-0.4362 7.5367 1.3584 -0.602 -0.247 -0.760 51 48 43 0 0
-0.4206 7.4813 1.3633 -0.604 -0.230 -0.763 50 47 42 0 0
-0.3900 7.3747 1.3727 -0.694 -0.227 -0.683 48 45 38 0 0
-0.3750 7.3251 1.3771 -0.817 -0.236 -0.525 46 43 36 0 0
-0.3607 7.2444 1.3843 -0.790 -0.258 -0.556 52 48 44 0 0
-0.3464 7.1845 1.3896 -0.811 -0.278 -0.515 72 65 58 0 0
-0.3331 7.0895 1.3980 -0.559 -0.722 -0.408 44 34 27 0 0
-0.3183 7.0782 1.3991 -0.415 -0.851 -0.322 44 37 31 0 0
-0.3034 7.0707 1.3997 -0.415 -0.851 -0.322 48 43 50 0 0
-0.2739 7.0525 1.4013 -0.621 -0.709 -0.335 72 52 69 0 0
-0.2592 7.0418 1.4023 -0.460 -0.812 -0.360 65 45 63 0 0
-0.2445 7.0352 1.4028 -0.429 -0.769 -0.475 55 47 64 0 0
-0.2299 7.0233 1.4039 -0.258 -0.928 -0.268 51 46 74 0 0
-0.0597 7.1222 1.3950 0.749 -0.559 -0.356 46 36 21 0 0
0.0476 7.3469 1.3750 0.872 -0.490 0.008 29 28 23 0 0
0.1055 7.2895 1.3801 0.946 -0.312 -0.092 33 32 27 0 0
0.1268 7.3584 1.3739 0.803 -0.566 -0.188 36 35 30 0 0
0.1527 7.2968 1.3794 -0.211 -0.907 -0.363 41 40 35 0 0
0.1676 7.2898 1.3800 -0.317 -0.846 -0.429 42 41 36 0 0
0.1932 7.2318 1.3851 -0.918 -0.394 -0.039 47 44 38 0 0
0.2059 7.2038 1.3876 -0.874 -0.388 -0.292 49 46 39 0 0
0.2189 7.1803 1.3897 -0.935 -0.335 -0.113 48 45 40 0 0
0.2311 7.1501 1.3924 -0.926 -0.355 -0.125 50 47 42 0 0
0.2541 7.0793 1.3987 -0.857 -0.490 0.157 55 52 46 0 0
0.2673 7.0619 1.4002 -0.777 -0.579 0.248 54 51 46 0 0
0.3369 7.0150 1.4043 -0.577 -0.159 -0.801 49 46 41 0 0
0.3453 6.9603 1.4092 -0.577 -0.159 -0.801 46 43 38 0 0
0.3552 6.9201 1.4128 -0.440 -0.183 -0.879 44 41 36 0 0
0.3651 6.8814 1.4162 -0.361 -0.192 -0.912 44 41 36 0 0
0.3765 6.8560 1.4184 -0.440 -0.179 -0.880 46 43 37 0 0
0.4890 7.1430 1.3929 -0.448 -0.487 0.750 56 53 48 0 0
0.5020 7.1275 1.3943 -0.701 -0.443 0.558 55 52 47 0 0
0.5107 7.0817 1.3983 -0.839 -0.496 -0.225 54 51 46 0 0
0.5214 7.0514 1.4010 -0.843 -0.509 -0.174 53 50 45 0 0
0.5779 7.0281 1.4030 -0.328 -0.238 0.914 53 50 45 0 0
0.5745 6.9095 1.4136 -0.954 -0.300 0.025 53 50 45 0 0
0.8216 6.7446 1.4281 -0.774 -0.227 -0.591 59 57 49 0 0
0.8268 6.6984 1.4322 -0.861 -0.258 -0.438 57 55 44 0 0
0.8775 6.6000 1.4409 -0.487 -0.283 0.826 98 96 81 0 0
0.9255 6.3162 1.4661 -0.903 -0.354 -0.243 201 201 188 0 0
0.9353 6.3004 1.4675 -0.895 -0.357 -0.266 201 202 188 0 0
0.9410 6.2671 1.4705 -0.198 -0.913 -0.358 203 203 190 0 0
0.8614 4.7511 1.6052 -0.550 -0.461 0.697 143 120 104 0 0
0.8725 4.7205 1.6080 -0.849 -0.321 0.419 142 64 69 0 0
0.8784 4.7067 1.6092 -0.849 -0.321 0.419 147 46 58 0 0
0.8856 4.6975 1.6100 -0.645 -0.566 0.513 123 39 47 0 0
0.8937 4.6916 1.6105 -0.583 -0.761 0.285 141 105 100 0 0
0.9017 4.6851 1.6111 -0.426 -0.857 0.290 229 218 203 0 0
0.9092 4.6773 1.6118 -0.301 -0.682 -0.667 226 214 197 0 0
0.9526 4.6899 1.6106 -0.521 -0.235 0.820 149 54 52 0 0
0.9591 4.6790 1.6116 -0.521 -0.235 0.820 151 47 58 0 0
0.9656 4.6682 1.6126 -0.574 -0.192 0.796 148 49 57 0 0
0.9711 4.6549 1.6137 -0.692 -0.276 0.668 154 68 69 0 0
0.9789 4.6485 1.6143 -0.716 -0.244 0.654 149 95 86 0 0
1.0199 4.6537 1.6138 -0.123 -0.541 0.832 233 221 204 0 0
1.0303 4.6553 1.6137 0.130 -0.611 0.781 224 195 176 0 0
1.0509 4.6581 1.6134 0.049 -0.379 0.924 151 54 62 0 0
1.0614 4.6601 1.6132 -0.044 -0.333 0.942 152 51 64 0 0
1.1116 4.6349 1.6154 -0.461 -0.876 0.144 229 219 209 0 0
1.1200 4.6311 1.6158 -0.488 -0.853 0.184 230 221 211 0 0
1.1798 4.6340 1.6155 -0.289 -0.694 0.660 254 253 248 0 0
1.1864 4.6254 1.6163 -0.792 -0.366 0.488 255 255 250 0 0
1.1924 4.6151 1.6172 -0.807 -0.327 0.491 255 255 250 0 0
1.2009 4.6118 1.6175 -0.094 -0.993 0.071 254 255 250 0 0
1.2107 4.6120 1.6174 0.013 -0.998 0.067 255 255 250 0 0
1.2203 4.6115 1.6175 -0.030 -0.985 0.171 254 255 250 0 0
1.2297 4.6107 1.6175 -0.072 -0.974 0.213 254 255 249 0 0
1.2548 4.6000 1.6185 -0.385 -0.923 -0.000 255 255 247 0 0
1.2604 4.5894 1.6194 -0.044 -0.907 -0.418 255 255 247 0 0
1.2837 4.5750 1.6207 -0.803 -0.248 -0.541 255 254 243 0 0
1.2874 4.5599 1.6220 -0.827 -0.245 -0.506 254 254 241 0 0
1.4394 4.6456 1.6143 0.192 -0.372 0.908 253 245 234 0 0
1.4514 4.6506 1.6139 0.192 -0.372 0.908 251 243 232 0 0
1.4547 4.6354 1.6152 0.503 -0.362 0.785 249 244 234 0 0
1.4728 4.6546 1.6135 0.379 -0.362 0.852 201 192 175 0 0
1.5586 4.6486 1.6140 0.182 -0.248 0.951 207 202 199 0 0
1.5711 4.6545 1.6135 0.149 -0.251 0.957 242 237 229 0 0
1.5799 4.6522 1.6137 0.075 -0.213 0.974 242 238 226 0 0
1.5970 4.6681 1.6123 0.132 -0.219 0.967 242 237 226 0 0
1.6123 4.6371 1.6150 0.101 -0.257 0.961 241 236 225 0 0
1.6350 4.6438 1.6144 0.101 -0.257 0.961 241 238 227 0 0
1.6474 4.6491 1.6139 0.434 -0.393 0.811 223 216 205 0 0
1.6605 4.6562 1.6133 0.210 -0.319 0.924 135 124 115 0 0
1.6708 4.6571 1.6132 0.098 -0.271 0.958 156 149 140 0 0
1.6832 4.6624 1.6127 0.120 -0.255 0.959 181 173 164 0 0
1.7501 4.6581 1.6131 -0.126 -0.186 0.975 99 93 78 0 0
1.7580 4.6540 1.6134 -0.150 -0.161 0.975 67 58 53 0 0
1.8245 4.6493 1.6138 0.276 -0.345 0.897 77 70 63 0 0
1.8904 4.6250 1.6159 0.400 -0.408 0.820 149 142 133 0 0
1.8951 4.6154 1.6168 0.640 -0.459 0.616 136 129 119 0 0
1.9239 4.6512 1.6136 0.696 -0.471 0.541 193 188 178 0 0
1.9331 4.6499 1.6137 -0.141 -0.218 0.966 234 231 220 0 0
1.9338 4.6328 1.6152 -0.218 -0.134 0.967 240 235 229 0 0
1.9402 4.6265 1.6158 -0.218 -0.134 0.967 238 233 227 0 0
1.9389 4.6059 1.6176 -0.730 -0.132 0.670 236 231 225 0 0
1.9991 4.6268 1.6157 0.618 -0.438 0.653 231 226 220 0 0
2.0307 4.6662 1.6122 0.618 -0.438 0.653 231 226 220 0 0
2.0457 4.6754 1.6114 0.498 -0.410 0.764 231 226 220 0 0
2.0763 4.6770 1.6112 0.028 -0.265 0.964 231 226 220 0 0
2.0709 4.6498 1.6136 0.278 -0.388 0.879 230 225 219 0 0
2.0757 4.6409 1.6144 0.406 -0.457 0.791 229 224 218 0 0
2.0942 4.6562 1.6131 0.347 -0.433 0.832 232 223 216 0 0
2.1096 4.6659 1.6122 0.377 -0.444 0.813 215 204 188 0 0
2.1266 4.6782 1.6111 0.377 -0.444 0.813 214 197 175 0 0
2.2073 4.6807 1.6108 -0.091 -0.309 0.947 178 141 126 0 0
2.2773 4.6981 1.6092 0.123 -0.307 0.944 142 85 85 0 0
2.3422 4.6903 1.6099 -0.074 -0.211 0.975 118 31 37 0 0
2.3495 4.6862 1.6103 -0.031 -0.210 0.977 134 59 58 0 0
2.3587 4.6849 1.6104 -0.041 -0.205 0.978 149 115 97 0 0
2.3792 4.6701 1.6117 -0.053 -0.165 0.985 206 194 172 0 0
-3.5454 4.9595 1.5785 0.978 -0.084 -0.192 192 217 208 0 0
-3.4021 5.3326 1.5445 -0.131 -0.804 -0.580 165 207 197 0 0
-3.3897 5.3304 1.5447 -0.131 -0.804 -0.580 167 209 199 0 0
-3.3765 5.3269 1.5450 0.076 -0.689 -0.721 164 206 196 0 0
-3.3634 5.3233 1.5453 -0.213 -0.876 -0.432 163 205 195 0 0
-3.3605 5.3384 1.5440 0.637 -0.770 -0.036 165 207 197 0 0
-3.3529 5.3447 1.5434 0.637 -0.770 -0.036 163 205 195 0 0
-3.3459 5.3525 1.5427 0.674 -0.693 0.257 164 206 195 0 0
-2.8354 5.1288 1.5628 0.940 -0.201 -0.276 102 134 117 0 0
-2.7947 5.2047 1.5558 -0.220 -0.922 0.318 195 162 131 0 0
-2.7909 5.2445 1.5522 0.986 -0.160 0.049 204 171 140 0 0
-2.7803 5.2948 1.5476 0.939 -0.268 0.215 206 173 144 0 0
-2.5376 4.9856 1.5756 0.887 -0.329 -0.324 206 173 142 0 0
-2.4974 4.9399 1.5798 0.054 -0.392 -0.918 205 172 141 0 0
-2.4180 5.0270 1.5718 -0.222 -0.225 0.949 206 170 139 0 0
-2.4071 5.0263 1.5719 -0.268 -0.208 0.941 208 172 141 0 0
-2.3959 5.0247 1.5720 -0.312 -0.226 0.923 202 168 139 0 0
-2.3786 5.0072 1.5736 -0.312 -0.226 0.923 186 154 126 0 0
-2.3653 5.0002 1.5742 -0.301 -0.291 0.908 172 143 117 0 0
-2.3458 4.9768 1.5763 -0.240 -0.328 0.914 155 129 106 0 0
-2.3213 4.9403 1.5796 0.132 -0.317 0.939 137 115 96 0 0
-2.2891 4.9100 1.5824 0.867 -0.452 0.213 118 106 89 0 0
-2.2734 4.9230 1.5812 0.875 -0.389 -0.287 113 84 64 0 0
-2.2706 4.9434 1.5793 0.585 -0.706 0.399 201 165 129 0 0
-2.3972 5.8446 1.4974 0.945 -0.222 -0.240 197 157 121 0 0
-2.4092 5.9171 1.4908 0.762 -0.540 0.358 196 156 120 0 0
-2.3961 5.9154 1.4909 0.741 -0.663 0.103 195 155 119 0 0
-2.3834 5.9149 1.4910 0.786 -0.611 -0.097 195 155 119 0 0
-2.3724 5.9193 1.4906 0.599 -0.553 -0.579 193 153 117 0 0
-2.3651 5.9352 1.4891 0.434 -0.820 -0.374 194 154 119 0 0
-2.3553 5.9437 1.4883 0.348 -0.910 -0.225 188 148 114 0 0
-2.2586 6.2132 1.4637 0.524 -0.440 -0.729 48 55 47 0 0
-2.2460 6.2148 1.4636 0.797 -0.481 -0.366 39 49 40 0 0
-2.2330 6.2152 1.4635 0.816 -0.424 0.392 52 70 58 0 0
-2.2078 6.3609 1.4503 0.898 -0.355 -0.262 77 105 90 0 0
-2.2001 6.3818 1.4484 0.898 -0.355 -0.262 79 105 91 0 0
-2.1695 6.4695 1.4404 0.893 -0.365 -0.263 74 101 86 0 0
-2.1647 6.5030 1.4373 0.963 -0.200 -0.180 72 99 85 0 0
-2.3944 7.5511 1.3420 0.176 -0.637 -0.750 68 96 81 0 0
-2.3565 7.5280 1.3441 -0.385 -0.862 0.329 69 97 82 0 0
-2.3312 7.4910 1.3475 -0.865 -0.461 -0.198 70 98 84 0 0
-2.2991 7.4262 1.3533 -0.570 -0.419 0.706 73 101 87 0 0
-2.1368 7.5459 1.3424 0.924 -0.137 0.356 55 65 60 0 0
-2.1291 7.5834 1.3389 -0.592 -0.718 0.366 44 51 44 0 0
-2.1109 7.5739 1.3398 -0.781 -0.505 -0.368 41 46 39 0 0
-2.0930 7.5655 1.3406 -0.612 -0.541 -0.577 42 44 35 0 0
-2.0543 7.5348 1.3433 0.217 -0.706 -0.674 38 39 34 0 0
-1.9925 7.6248 1.3351 -0.812 -0.527 -0.250 38 39 33 0 0
-1.9696 7.5917 1.3381 -0.816 -0.538 -0.210 37 37 35 0 0
-1.9454 7.5508 1.3418 -0.780 -0.550 -0.299 37 38 31 0 0
-1.9228 7.5170 1.3449 -0.780 -0.550 -0.299 46 47 42 0 0
-1.9006 7.4848 1.3478 -0.765 -0.569 -0.302 47 46 44 0 0
-1.8815 7.4682 1.3493 -0.712 -0.639 -0.292 51 49 44 0 0
-1.7170 7.3418 1.3607 -0.670 -0.736 -0.092 75 88 70 0 0
-1.6988 7.3265 1.3621 -0.427 -0.777 -0.463 78 90 73 0 0
-1.6024 7.3076 1.3638 0.160 -0.811 -0.562 142 141 127 0 0
-1.5857 7.2998 1.3645 -0.013 -0.908 -0.419 129 128 120 0 0
-1.5699 7.2978 1.3647 0.042 -0.990 0.132 116 115 111 0 0
-1.5537 7.2930 1.3651 -0.207 -0.916 -0.344 99 98 96 0 0
-1.5389 7.2977 1.3646 -0.504 -0.853 -0.134 86 84 85 0 0
-1.5223 7.2900 1.3653 -0.421 -0.900 -0.116 93 91 92 0 0
-1.5071 7.2922 1.3651 0.039 -0.992 -0.117 113 111 111 0 0
-1.4918 7.2937 1.3650 0.575 -0.799 -0.178 117 116 113 0 0
-1.4727 7.2677 1.3673 0.760 -0.413 -0.502 128 127 121 0 0
-1.3472 7.6502 1.3325 0.445 -0.563 -0.696 37 44 65 0 0
-1.3319 7.6592 1.3316 0.232 -0.589 -0.774 50 58 83 0 0
-1.3166 7.6674 1.3309 0.282 -0.573 -0.769 52 59 85 0 0
-1.3029 7.6915 1.3287 0.777 -0.612 -0.144 51 58 83 0 0
-1.2860 7.6868 1.3291 0.669 -0.376 -0.641 52 59 87 0 0
-1.2303 7.7848 1.3201 0.315 -0.604 -0.732 55 58 89 0 0
-1.2166 7.8143 1.3175 0.499 -0.484 -0.719 54 57 88 0 0
-0.7354 7.8491 1.3140 -0.728 -0.422 -0.539 174 165 138 0 0
-0.7174 7.8099 1.3176 -0.679 -0.437 -0.591 176 166 139 0 0
-0.6999 7.7788 1.3204 -0.679 -0.437 -0.591 177 168 140 0 0
-0.6825 7.7480 1.3232 -0.679 -0.437 -0.591 176 169 141 0 0
-0.6654 7.7256 1.3252 -0.630 -0.422 -0.652 176 169 141 0 0
-0.6483 7.6940 1.3281 -0.604 -0.396 -0.692 175 168 140 0 0
-0.5809 7.5638 1.3399 -0.679 -0.409 -0.610 120 111 96 0 0
-0.3747 7.3468 1.3596 -0.910 -0.203 -0.362 41 40 35 0 0
-0.3603 7.2699 1.3666 -0.910 -0.203 -0.362 86 85 74 0 0
-0.3458 7.2182 1.3713 -0.796 -0.270 -0.542 70 67 56 0 0
-0.3315 7.1668 1.3759 -0.832 -0.267 -0.486 63 57 47 0 0
-0.3181 7.0867 1.3832 -0.866 -0.306 -0.396 54 46 40 0 0
-0.2881 7.0793 1.3839 -0.715 -0.621 -0.322 31 26 28 0 0
-0.2736 7.0600 1.3856 -0.615 -0.712 -0.340 42 38 39 0 0
-0.2590 7.0486 1.3867 -0.460 -0.812 -0.360 54 49 52 0 0
-0.2441 7.0448 1.3870 -0.429 -0.769 -0.475 57 52 59 0 0
-0.2297 7.0280 1.3885 -0.256 -0.917 -0.306 66 61 68 0 0
-0.2149 7.0242 1.3889 0.198 -0.902 -0.383 71 64 69 0 0
-0.1392 7.0464 1.3868 0.303 -0.905 -0.297 60 50 46 0 0
-0.0590 7.1339 1.3788 0.727 -0.586 -0.359 56 42 27 0 0
-0.0424 7.1566 1.3767 0.783 -0.560 -0.270 44 38 30 0 0
0.1048 7.2816 1.3653 0.952 -0.283 -0.115 33 32 27 0 0
0.1269 7.3603 1.3581 0.779 -0.547 -0.306 37 36 31 0 0
0.1522 7.2908 1.3644 0.061 -0.889 -0.453 42 41 36 0 0
0.1897 7.1955 1.3731 -0.614 -0.635 0.468 47 44 39 0 0
0.2079 7.2253 1.3703 -0.846 -0.350 -0.403 48 45 40 0 0
0.2161 7.1523 1.3770 -0.801 -0.387 0.456 48 45 38 0 0
0.2574 7.1104 1.3808 -0.481 -0.438 -0.760 49 46 39 0 0
0.2728 7.1128 1.3805 -0.399 -0.493 -0.773 50 47 40 0 0
0.3460 7.0915 1.3824 -0.539 -0.168 -0.825 57 54 49 0 0
0.3544 7.0365 1.3874 -0.577 -0.159 -0.801 53 50 45 0 0
0.3653 7.0028 1.3905 -0.440 -0.183 -0.879 52 49 44 0 0
0.3759 6.9679 1.3937 -0.361 -0.192 -0.912 50 47 42 0 0
0.4715 7.1266 1.3792 -0.332 -0.221 0.917 45 42 37 0 0
0.5234 7.0656 1.3847 -0.768 -0.532 0.357 54 51 46 0 0
0.5616 7.0195 1.3889 -0.702 -0.151 0.695 55 52 47 0 0
0.5725 6.9928 1.3913 -0.437 -0.221 0.872 54 51 45 0 0
0.5836 6.9683 1.3935 -0.512 -0.261 0.818 54 51 44 0 0
0.5963 6.9551 1.3947 -0.342 -0.301 0.890 54 51 44 0 0
0.6099 6.9475 1.3954 -0.362 -0.292 0.885 54 51 44 0 0
0.6186 6.9098 1.3988 -0.585 -0.304 0.752 53 50 43 0 0
0.6310 6.8957 1.4001 -0.651 -0.278 0.706 54 51 44 0 0
0.6456 6.8951 1.4002 -0.493 -0.238 0.837 55 52 45 0 0
0.9090 6.4870 1.4372 -0.827 -0.413 0.382 55 51 41 0 0
0.9081 6.4203 1.4432 -0.955 -0.297 -0.003 74 72 59 0 0
0.9310 6.3407 1.4505 -0.955 -0.268 -0.128 162 160 148 0 0
0.9371 6.3082 1.4534 -0.928 -0.371 -0.034 188 186 174 0 0
0.9384 6.2562 1.4582 0.108 -0.828 0.550 214 212 200 0 0
0.8705 4.7138 1.5986 -0.860 -0.323 0.395 144 41 52 0 0
0.8765 4.7003 1.5998 -0.835 -0.380 0.397 107 50 53 0 0
0.8834 4.6902 1.6008 -0.554 -0.585 0.592 74 41 42 0 0
0.8946 4.6946 1.6004 -0.703 -0.566 -0.430 192 176 168 0 0
0.9039 4.6926 1.6005 -0.208 -0.573 -0.793 214 200 184 0 0
0.9333 4.6913 1.6006 -0.295 -0.508 0.809 105 37 36 0 0
0.9397 4.6800 1.6017 -0.410 -0.259 0.875 143 47 56 0 0
0.9472 4.6725 1.6023 -0.484 -0.270 0.833 150 44 53 0 0
0.9540 4.6627 1.6032 -0.432 -0.332 0.839 159 51 60 0 0
0.9909 4.6552 1.6039 -0.308 -0.522 0.795 204 189 173 0 0
0.9993 4.6507 1.6043 -0.289 -0.542 0.789 223 211 195 0 0
1.0077 4.6465 1.6047 -0.308 -0.522 0.795 234 225 208 0 0
1.0167 4.6439 1.6049 -0.147 -0.605 0.783 230 222 204 0 0
1.0261 4.6427 1.6050 0.012 -0.660 0.751 228 214 189 0 0
1.0563 4.6450 1.6048 -0.008 -0.557 0.831 194 162 153 0 0
1.0801 4.6571 1.6037 -0.314 -0.298 0.901 232 220 206 0 0
1.0880 4.6515 1.6042 -0.317 -0.360 0.877 235 223 207 0 0
1.0955 4.6450 1.6048 -0.307 -0.336 0.890 229 204 189 0 0
1.1017 4.6346 1.6057 -0.004 -0.469 0.883 170 111 105 0 0
1.1107 4.6324 1.6059 0.122 -0.946 0.301 217 184 178 0 0
1.1202 4.6315 1.6060 -0.398 -0.906 0.142 232 211 201 0 0
1.1328 4.6396 1.6052 -0.233 -0.685 0.690 235 222 208 0 0
1.1965 4.6263 1.6064 -0.269 -0.357 0.894 216 208 200 0 0
1.2134 4.6191 1.6071 0.040 -0.776 0.629 234 227 221 0 0
1.2235 4.6201 1.6070 0.148 -0.628 0.764 237 233 226 0 0
1.2506 4.6143 1.6075 -0.269 -0.798 0.539 254 252 247 0 0
1.3915 4.6250 1.6064 0.096 -0.128 0.987 254 252 239 0 0
1.4396 4.6002 1.6087 0.503 -0.362 0.785 252 246 234 0 0
1.4583 4.6212 1.6067 0.402 -0.357 0.843 249 245 233 0 0
1.4664 4.6172 1.6071 0.021 -0.242 0.970 250 246 234 0 0
1.4764 4.6178 1.6070 0.021 -0.242 0.970 247 244 234 0 0
1.4968 4.6198 1.6068 -0.207 -0.101 0.973 250 246 235 0 0
1.5668 4.6234 1.6065 0.199 -0.227 0.953 249 241 230 0 0
1.5792 4.6290 1.6060 0.185 -0.226 0.956 250 242 231 0 0
1.6154 4.6228 1.6065 -0.066 -0.204 0.977 246 238 227 0 0
1.6836 4.5819 1.6102 0.437 -0.385 0.813 94 85 80 0 0
1.6875 4.5700 1.6113 0.671 -0.483 0.562 114 107 101 0 0
1.7126 4.6017 1.6084 0.671 -0.483 0.562 141 135 129 0 0
1.7341 4.6254 1.6062 0.696 -0.499 0.516 203 199 193 0 0
1.7387 4.6151 1.6072 -0.253 -0.173 0.952 181 176 170 0 0
1.7458 4.6095 1.6077 -0.259 -0.166 0.951 158 154 148 0 0
1.8258 4.6326 1.6055 0.356 -0.373 0.857 193 189 178 0 0
1.8385 4.6383 1.6050 0.468 -0.395 0.791 238 233 222 0 0
1.8589 4.6587 1.6031 0.468 -0.395 0.791 238 233 222 0 0
1.8546 4.5754 1.6107 0.393 -0.390 0.832 236 232 221 0 0
1.8692 4.5848 1.6098 0.454 -0.432 0.779 237 233 222 0 0
1.8766 4.5804 1.6102 0.652 -0.467 0.597 237 233 224 0 0
1.9051 4.6158 1.6070 0.696 -0.471 0.541 225 221 211 0 0
1.9255 4.6357 1.6052 0.291 -0.339 0.895 94 82 68 0 0
1.9383 4.6412 1.6047 0.191 -0.310 0.931 101 92 83 0 0
1.9235 4.5775 1.6105 -0.763 -0.173 0.623 145 139 129 0 0
1.9240 4.5605 1.6120 -0.796 -0.197 0.572 167 162 151 0 0
2.0095 4.6279 1.6058 0.550 -0.420 0.721 234 229 223 0 0
2.0339 4.6541 1.6034 0.532 -0.423 0.734 232 227 221 0 0
2.0487 4.6630 1.6026 0.347 -0.354 0.869 232 227 221 0 0
2.0568 4.6249 1.6061 0.188 -0.325 0.927 230 225 219 0 0
2.0701 4.6310 1.6055 0.188 -0.325 0.927 230 225 219 0 0
2.0846 4.6393 1.6048 0.263 -0.374 0.889 230 222 215 0 0
2.0993 4.6478 1.6040 0.263 -0.374 0.889 214 200 189 0 0
2.2043 4.6589 1.6029 -0.064 -0.305 0.950 159 71 76 0 0
2.2107 4.6531 1.6035 -0.214 -0.241 0.947 146 50 58 0 0
2.2165 4.6463 1.6041 -0.224 -0.229 0.947 221 183 172 0 0
2.2804 4.6542 1.6033 0.011 -0.238 0.971 209 198 178 0 0
2.2905 4.6545 1.6033 0.011 -0.238 0.971 217 200 179 0 0
2.3125 4.6583 1.6029 0.053 -0.259 0.964 158 121 107 0 0
2.3300 4.6546 1.6032 -0.029 -0.213 0.977 190 156 141 0 0
2.3393 4.6537 1.6033 -0.029 -0.213 0.977 191 165 147 0 0
2.3469 4.6502 1.6036 -0.124 -0.158 0.980 175 145 123 0 0
2.3559 4.6488 1.6038 -0.135 -0.148 0.980 140 89 80 0 0
2.3619 4.6426 1.6043 -0.099 -0.165 0.981 188 142 135 0 0
2.3817 4.6428 1.6043 -0.051 -0.199 0.979 165 112 108 0 0
2.3876 4.6367 1.6049 0.136 -0.327 0.935 175 130 120 0 0
2.4797 4.6877 1.6002 0.492 -0.494 0.717 90 64 46 0 0
-3.5486 4.9321 1.5707 0.986 -0.079 -0.144 254 254 254 0 0
-3.5482 4.9639 1.5677 0.992 -0.088 -0.096 190 216 207 0 0
-3.4535 5.2668 1.5394 0.392 -0.918 -0.061 174 212 201 0 0
-3.4487 5.2776 1.5384 0.270 -0.923 -0.273 172 210 199 0 0
-3.4301 5.2646 1.5396 0.011 -0.929 -0.370 170 210 199 0 0
-3.4282 5.2805 1.5381 0.534 -0.844 0.045 170 210 199 0 0
-3.4115 5.2900 1.5372 0.707 -0.706 -0.045 171 211 202 0 0
-3.4062 5.3002 1.5363 0.897 -0.289 -0.334 169 209 200 0 0
-3.3965 5.3029 1.5360 0.715 -0.395 -0.577 169 211 201 0 0
-3.4084 5.3437 1.5322 -0.023 -0.680 -0.733 169 211 201 0 0
-3.3968 5.3431 1.5323 -0.024 -0.652 -0.758 166 208 198 0 0
-3.3852 5.3423 1.5324 -0.027 -0.644 -0.764 165 207 197 0 0
-3.3771 5.3480 1.5318 -0.399 -0.719 -0.569 165 207 197 0 0
-3.3629 5.3425 1.5323 -0.272 -0.693 -0.668 162 204 194 0 0
-3.3476 5.3353 1.5330 -0.176 -0.760 -0.626 163 205 195 0 0
-3.3343 5.3314 1.5333 -0.372 -0.783 -0.498 162 204 193 0 0
-3.3382 5.3591 1.5308 0.662 -0.399 -0.634 162 204 192 0 0
-3.2800 5.5286 1.5149 -0.000 -0.850 -0.527 119 160 142 0 0
-3.2038 5.6328 1.5052 0.910 -0.171 -0.377 108 145 127 0 0
-2.8759 5.1686 1.5483 -0.187 -0.631 -0.752 102 136 119 0 0
-2.8430 5.1449 1.5505 0.822 -0.513 -0.249 101 133 116 0 0
-2.7928 5.2006 1.5453 -0.220 -0.922 0.318 194 161 130 0 0
-2.8006 5.2417 1.5414 0.964 -0.192 -0.185 201 168 137 0 0
-2.4402 5.0299 1.5610 -0.300 -0.227 0.926 193 160 131 0 0
-2.4218 5.0101 1.5628 -0.320 -0.227 0.920 177 147 121 0 0
-2.4093 5.0051 1.5633 -0.282 -0.184 0.942 158 131 107 0 0
-2.3904 4.9838 1.5652 -0.292 -0.196 0.936 141 117 95 0 0
-2.3768 4.9759 1.5660 -0.281 -0.202 0.938 132 110 91 0 0
-2.3554 4.9479 1.5686 -0.065 -0.224 0.972 130 112 95 0 0
-2.3452 4.9485 1.5685 -0.028 -0.205 0.978 129 114 100 0 0
-2.3107 4.9127 1.5718 0.331 -0.349 0.876 120 111 94 0 0
-2.2757 4.9293 1.5703 0.596 -0.699 0.395 163 132 104 0 0
-2.2690 4.9391 1.5693 0.585 -0.706 0.399 198 162 126 0 0
-2.4976 5.6802 1.5004 0.870 -0.406 -0.280 197 161 125 0 0
-2.4043 5.7929 1.4898 0.539 -0.241 -0.807 197 157 121 0 0
-2.4104 5.8470 1.4848 0.875 -0.436 -0.209 197 157 121 0 0
-2.3957 5.9141 1.4785 0.759 -0.646 0.076 196 156 120 0 0
-2.3845 5.9181 1.4782 0.780 -0.605 -0.161 190 149 117 0 0
-2.3772 5.9341 1.4767 0.782 -0.506 -0.364 174 133 101 0 0
-2.3478 5.9594 1.4743 0.646 -0.581 -0.495 171 134 103 0 0
-2.3411 5.9778 1.4726 0.758 -0.240 -0.606 159 124 95 0 0
-2.2784 6.1912 1.4527 0.635 -0.563 -0.529 45 54 44 0 0
-2.2701 6.2076 1.4511 0.509 -0.597 -0.621 50 66 55 0 0
-2.2453 6.2125 1.4506 0.499 -0.855 -0.141 81 112 96 0 0
-2.2341 6.2191 1.4500 0.499 -0.855 -0.141 76 109 93 0 0
-2.2315 6.2558 1.4466 0.501 -0.588 -0.635 77 109 92 0 0
-2.2243 6.2773 1.4446 0.800 -0.367 -0.475 75 108 91 0 0
-2.2080 6.3616 1.4367 0.921 -0.322 -0.218 77 105 90 0 0
-2.4111 7.5536 1.3257 0.941 -0.337 -0.021 68 96 82 0 0
-2.4002 7.5733 1.3239 0.367 -0.450 -0.814 70 98 84 0 0
-2.3855 7.5789 1.3234 -0.254 -0.570 -0.781 73 101 86 0 0
-2.3529 7.5139 1.3294 -0.592 -0.474 -0.652 74 102 88 0 0
-2.3378 7.5170 1.3291 -0.730 -0.333 -0.597 75 103 89 0 0
-2.1846 7.4084 1.3392 -0.098 -0.392 0.915 62 80 72 0 0
-2.1709 7.4171 1.3383 0.503 -0.089 0.860 60 75 67 0 0
-2.1138 7.5872 1.3225 -0.748 -0.499 -0.437 42 43 35 0 0
-2.0947 7.5736 1.3237 -0.552 -0.512 -0.658 47 44 34 0 0
-2.0723 7.5444 1.3264 -0.636 -0.506 -0.582 49 45 32 0 0
-2.0583 7.5535 1.3256 0.176 -0.537 -0.825 62 58 37 0 0
-2.0466 7.5745 1.3236 0.004 -0.206 -0.978 98 92 64 0 0
-2.0305 7.5742 1.3236 0.060 -0.260 -0.964 90 80 54 0 0
-2.0192 7.5972 1.3215 0.411 -0.643 -0.647 62 56 39 0 0
-1.9946 7.6351 1.3179 -0.821 -0.533 -0.205 36 34 26 0 0
-1.9728 7.6074 1.3205 -0.839 -0.541 -0.063 38 36 31 0 0
-1.9486 7.5668 1.3243 -0.801 -0.570 -0.184 36 37 30 0 0
-1.9261 7.5341 1.3273 -0.794 -0.585 -0.165 40 41 36 0 0
-1.9036 7.5007 1.3304 -0.772 -0.596 -0.223 48 49 46 0 0
-1.8831 7.4767 1.3326 -0.721 -0.640 -0.263 49 50 48 0 0
-1.8605 7.4414 1.3359 -0.772 -0.589 -0.238 49 50 51 0 0
-1.8397 7.4147 1.3384 -0.797 -0.570 -0.200 47 48 47 0 0
-1.8187 7.3859 1.3411 -0.769 -0.581 -0.266 50 51 49 0 0
-1.7978 7.3576 1.3437 -0.736 -0.602 -0.311 54 57 53 0 0
-1.7806 7.3487 1.3445 -0.333 -0.830 0.447 62 66 59 0 0
-1.7637 7.3414 1.3452 -0.112 -0.662 0.741 67 71 64 0 0
-1.7479 7.3405 1.3453 -0.339 -0.619 0.709 71 77 66 0 0
-1.7192 7.3550 1.3439 -0.594 -0.804 0.023 72 84 69 0 0
-1.6961 7.3107 1.3480 0.315 -0.899 -0.303 74 86 69 0 0
-1.6035 7.3141 1.3476 0.028 -0.920 -0.391 139 139 125 0 0
-1.5877 7.3129 1.3477 -0.151 -0.988 -0.024 126 126 117 0 0
-1.5696 7.2958 1.3493 0.042 -0.990 0.132 108 107 102 0 0
-1.5545 7.2982 1.3491 -0.171 -0.982 -0.080 92 91 89 0 0
-1.5395 7.3017 1.3488 -0.271 -0.960 -0.073 86 84 85 0 0
-1.5233 7.2970 1.3492 -0.271 -0.960 -0.073 97 95 96 0 0
-1.5084 7.3009 1.3488 0.526 -0.833 0.171 119 118 116 0 0
-1.4922 7.2961 1.3493 0.616 -0.787 -0.022 130 130 123 0 0
-1.4751 7.2848 1.3503 0.742 -0.421 -0.523 137 137 127 0 0
-1.3494 7.6696 1.3144 0.465 -0.521 -0.716 63 69 99 0 0
-1.3315 7.6557 1.3157 -0.102 -0.629 -0.771 56 63 91 0 0
-1.2892 7.7159 1.3100 0.681 -0.348 -0.645 62 68 101 0 0
-1.2622 7.7731 1.3047 0.693 -0.353 -0.628 46 52 84 0 0
-1.2483 7.7990 1.3023 0.630 -0.367 -0.685 53 58 90 0 0
-1.2330 7.8125 1.3010 0.387 -0.417 -0.822 55 58 89 0 0
-0.7186 7.8475 1.2975 -0.653 -0.402 -0.642 176 166 139 0 0
-0.7009 7.8137 1.3006 -0.653 -0.402 -0.642 178 168 141 0 0
-0.6842 7.8097 1.3010 -0.523 -0.348 -0.778 177 170 142 0 0
-0.3594 7.3260 1.3459 -0.957 -0.199 -0.209 99 98 91 0 0
-0.3452 7.2491 1.3530 -0.949 -0.208 -0.236 51 47 41 0 0
-0.3310 7.1920 1.3583 -0.937 -0.218 -0.274 70 63 55 0 0
-0.3167 7.1474 1.3625 -0.942 -0.289 -0.172 74 63 53 0 0
-0.3024 7.1113 1.3659 -0.835 -0.485 -0.260 76 65 57 0 0
-0.2879 7.0872 1.3681 -0.715 -0.621 -0.322 55 49 49 0 0
-0.2735 7.0640 1.3702 -0.553 -0.799 -0.236 47 43 44 0 0
-0.2588 7.0535 1.3712 -0.553 -0.799 -0.236 43 39 40 0 0
-0.2440 7.0488 1.3716 -0.509 -0.819 -0.265 42 38 38 0 0
-0.2293 7.0394 1.3725 -0.509 -0.819 -0.265 41 37 37 0 0
-0.1998 7.0289 1.3735 0.326 -0.896 -0.300 44 38 32 0 0
-0.1847 7.0328 1.3731 0.343 -0.889 -0.305 40 25 26 0 0
-0.1694 7.0401 1.3724 0.312 -0.882 -0.352 39 31 25 0 0
-0.1389 7.0516 1.3713 0.303 -0.905 -0.297 38 29 27 0 0
-0.0585 7.1422 1.3628 0.754 -0.580 -0.308 82 59 37 0 0
-0.0416 7.1701 1.3602 0.784 -0.523 -0.334 43 36 27 0 0
-0.0246 7.1972 1.3577 0.784 -0.523 -0.334 28 28 25 0 0
-0.0082 7.2126 1.3562 0.692 -0.618 -0.374 28 27 23 0 0
0.0676 7.2011 1.3573 0.953 -0.274 -0.128 31 30 25 0 0
0.1219 7.3000 1.3480 0.332 -0.937 -0.108 35 34 29 0 0
0.1360 7.2837 1.3496 -0.165 -0.903 -0.397 38 37 32 0 0
0.1996 7.1391 1.3630 -0.753 -0.594 0.283 48 45 40 0 0
0.2163 7.1543 1.3616 -0.880 -0.475 0.012 48 45 39 0 0
0.3232 7.2931 1.3486 -0.197 -0.137 -0.971 50 47 42 0 0
0.3313 7.2278 1.3547 -0.157 -0.149 -0.976 52 49 44 0 0
0.3428 7.1938 1.3578 -0.157 -0.197 -0.968 52 49 44 0 0
0.3559 7.1751 1.3596 -0.174 -0.196 -0.965 63 60 55 0 0
0.3757 7.0874 1.3677 -0.357 -0.180 -0.916 54 51 46 0 0
0.3862 7.0509 1.3711 -0.372 -0.188 -0.909 55 52 47 0 0
0.4816 7.0895 1.3675 -0.086 -0.277 0.957 51 48 43 0 0
0.5214 7.0513 1.3710 -0.760 -0.529 0.378 42 39 34 0 0
0.5355 7.0451 1.3716 -0.825 -0.212 0.524 44 41 36 0 0
0.5669 6.9561 1.3799 -0.582 -0.196 0.789 54 51 46 0 0
0.5756 6.9167 1.3835 -0.878 -0.382 0.290 54 51 44 0 0
0.5854 6.8854 1.3864 -0.926 -0.369 0.086 55 52 45 0 0
0.5959 6.8595 1.3888 -0.926 -0.369 0.086 55 52 45 0 0
0.6144 6.8835 1.3866 -0.480 -0.302 0.823 54 51 44 0 0
0.6258 6.8636 1.3884 -0.532 -0.299 0.792 54 51 44 0 0
0.7434 6.7102 1.4027 -0.695 -0.165 -0.700 57 54 47 0 0
0.9387 6.0894 1.4604 0.960 -0.262 0.100 172 167 154 0 0
0.8617 4.7178 1.5883 -0.895 -0.322 0.308 113 46 51 0 0
0.8695 4.7105 1.5890 -0.882 -0.383 0.275 139 61 68 0 0
0.8753 4.6963 1.5903 -0.861 -0.412 0.299 82 60 57 0 0
0.8812 4.6829 1.5915 -0.554 -0.585 0.592 78 65 60 0 0
0.9006 4.6817 1.5916 -0.269 -0.894 0.359 114 97 82 0 0
0.9109 4.6830 1.5915 0.044 -0.980 0.194 88 47 40 0 0
0.9205 4.6820 1.5916 -0.124 -0.930 0.345 112 40 44 0 0
0.9286 4.6762 1.5922 -0.249 -0.469 0.848 109 24 32 0 0
0.9416 4.6546 1.5942 -0.409 -0.365 0.837 136 47 54 0 0
0.9496 4.6489 1.5947 -0.420 -0.390 0.820 141 43 53 0 0
0.9553 4.6360 1.5959 -0.609 -0.406 0.682 144 58 68 0 0
0.9700 4.6511 1.5945 -0.417 -0.528 0.740 233 211 203 0 0
0.9780 4.6455 1.5950 -0.417 -0.528 0.740 181 161 143 0 0
0.9877 4.6451 1.5950 -0.228 -0.522 0.822 234 227 210 0 0
0.9957 4.6398 1.5955 -0.289 -0.542 0.789 229 222 204 0 0
1.0037 4.6343 1.5960 -0.139 -0.543 0.828 231 220 203 0 0
1.0131 4.6332 1.5961 -0.066 -0.610 0.789 226 214 194 0 0
1.0232 4.6340 1.5960 -0.044 -0.613 0.789 212 196 174 0 0
1.0326 4.6328 1.5961 -0.190 -0.544 0.817 136 123 106 0 0
1.0438 4.6370 1.5957 0.270 -0.549 0.791 233 224 211 0 0
1.0532 4.6360 1.5958 0.083 -0.667 0.741 227 218 203 0 0
1.0734 4.6377 1.5957 -0.267 -0.316 0.910 224 212 195 0 0
1.0814 4.6324 1.5961 -0.267 -0.316 0.910 221 195 180 0 0
1.0880 4.6234 1.5970 -0.184 -0.323 0.928 212 183 165 0 0
1.0965 4.6198 1.5973 0.017 -0.374 0.927 172 110 100 0 0
1.1048 4.6157 1.5977 0.039 -0.449 0.893 141 43 52 0 0
1.1151 4.6173 1.5975 -0.003 -0.428 0.904 149 55 63 0 0
1.1249 4.6172 1.5975 -0.020 -0.398 0.917 159 71 76 0 0
1.1349 4.6180 1.5975 0.236 -0.498 0.834 171 106 106 0 0
1.1847 4.6208 1.5972 -0.104 -0.447 0.889 220 206 189 0 0
1.1936 4.6184 1.5974 -0.126 -0.419 0.899 215 199 187 0 0
1.2005 4.6108 1.5981 -0.097 -0.495 0.864 231 222 206 0 0
1.2079 4.6047 1.5987 -0.308 -0.483 0.820 236 223 208 0 0
1.2203 4.6117 1.5980 0.045 -0.511 0.858 231 211 197 0 0
1.2311 4.6143 1.5978 0.126 -0.547 0.828 202 154 149 0 0
1.2455 4.6267 1.5966 0.226 -0.329 0.917 170 117 123 0 0
1.2579 4.6334 1.5960 0.226 -0.329 0.917 199 182 176 0 0
1.3397 4.5466 1.6040 0.320 -0.160 0.934 255 255 245 0 0
1.4571 4.5957 1.5994 -0.040 -0.235 0.971 252 248 236 0 0
1.5392 4.5841 1.6004 -0.301 -0.170 0.938 253 245 234 0 0
1.5903 4.6106 1.5979 -0.124 -0.135 0.983 252 244 233 0 0
1.6094 4.5891 1.5999 -0.048 -0.196 0.979 250 243 231 0 0
1.6183 4.5873 1.6001 -0.022 -0.203 0.979 243 234 218 0 0
1.6682 4.5503 1.6035 0.437 -0.385 0.813 71 58 55 0 0
1.6795 4.5537 1.6032 0.593 -0.454 0.665 72 60 56 0 0
1.6997 4.5752 1.6012 0.671 -0.483 0.562 77 69 64 0 0
1.7219 4.6008 1.5988 0.696 -0.499 0.516 215 210 204 0 0
1.7443 4.6263 1.5964 0.568 -0.462 0.681 236 231 225 0 0
1.7499 4.6178 1.5972 0.310 -0.376 0.873 237 232 226 0 0
1.7621 4.6227 1.5967 0.093 -0.215 0.972 237 232 226 0 0
1.8100 4.6017 1.5986 0.356 -0.373 0.857 202 197 187 0 0
1.8263 4.6145 1.5974 0.356 -0.373 0.857 205 199 189 0 0
1.8428 4.6276 1.5962 0.410 -0.417 0.811 223 218 207 0 0
1.8302 4.5658 1.6020 -0.801 -0.183 0.570 241 238 227 0 0
1.8470 4.5609 1.6024 0.382 -0.451 0.807 238 234 223 0 0
1.8543 4.5564 1.6028 0.454 -0.432 0.779 236 232 221 0 0
1.8594 4.5478 1.6036 0.625 -0.449 0.638 236 232 222 0 0
1.8866 4.5810 1.6005 0.696 -0.471 0.541 240 235 226 0 0
1.9091 4.6049 1.5983 0.177 -0.307 0.935 98 86 72 0 0
1.9207 4.6084 1.5979 0.226 -0.308 0.924 68 59 50 0 0
1.9346 4.6161 1.5972 0.144 -0.283 0.948 70 61 52 0 0
1.9380 4.6043 1.5983 -0.068 -0.203 0.977 68 59 50 0 0
1.9455 4.5470 1.6037 0.631 -0.570 0.527 78 69 64 0 0
1.9678 4.5699 1.6015 0.679 -0.535 0.503 97 91 85 0 0
2.0179 4.6253 1.5963 0.606 -0.427 0.671 233 228 222 0 0
2.0483 4.6097 1.5978 -0.049 -0.283 0.958 231 226 220 0 0
2.0532 4.6011 1.5985 0.137 -0.323 0.936 231 226 220 0 0
2.0680 4.6101 1.5977 0.245 -0.355 0.902 229 224 215 0 0
2.0831 4.6194 1.5968 0.263 -0.374 0.889 227 209 200 0 0
2.1644 4.6413 1.5947 -0.175 -0.256 0.951 127 52 51 0 0
2.1915 4.6372 1.5951 -0.066 -0.300 0.951 136 39 43 0 0
2.2051 4.6272 1.5960 -0.122 -0.250 0.960 150 86 83 0 0
2.2350 4.6280 1.5960 -0.031 -0.225 0.974 221 218 197 0 0
2.2736 4.6270 1.5960 0.006 -0.198 0.980 208 193 170 0 0
2.2839 4.6278 1.5959 0.015 -0.205 0.979 178 147 127 0 0
2.2934 4.6274 1.5960 0.042 -0.234 0.971 210 193 169 0 0
2.3039 4.6285 1.5959 0.022 -0.223 0.975 223 215 192 0 0
2.3142 4.6292 1.5958 0.022 -0.223 0.975 217 211 187 0 0
2.3436 4.6136 1.5972 -0.520 -0.135 0.843 130 56 61 0 0
2.3549 4.6160 1.5970 -0.290 -0.258 0.922 115 31 39 0 0
2.3623 4.6123 1.5973 -0.238 -0.267 0.934 124 36 46 0 0
-3.4471 5.2558 1.5294 0.608 -0.744 0.278 173 211 200 0 0
-3.4431 5.2679 1.5282 0.095 -0.874 0.477 172 210 199 0 0
-3.4319 5.2675 1.5283 0.253 -0.941 -0.226 170 210 199 0 0
-3.4221 5.2699 1.5280 0.387 -0.910 -0.147 168 208 197 0 0
-3.4138 5.2746 1.5276 -0.145 -0.984 0.108 171 211 200 0 0
-3.4158 5.2976 1.5254 0.855 -0.513 0.077 169 209 198 0 0
-3.4032 5.2951 1.5256 0.845 -0.319 -0.430 167 208 197 0 0
-3.3993 5.3077 1.5244 0.675 -0.311 -0.669 168 210 199 0 0
-3.4165 5.3582 1.5196 0.102 -0.612 -0.784 166 208 197 0 0
-3.4058 5.3591 1.5195 -0.090 -0.653 -0.752 167 209 198 0 0
-3.3944 5.3589 1.5195 -0.007 -0.617 -0.787 166 208 197 0 0
-3.3851 5.3623 1.5192 -0.235 -0.683 -0.692 165 207 196 0 0
-3.3695 5.3544 1.5199 -0.047 -0.719 -0.693 163 205 193 0 0
-3.3645 5.3659 1.5188 0.075 -0.605 -0.793 164 206 195 0 0
-3.3465 5.3741 1.5181 0.632 -0.410 -0.658 162 204 192 0 0
-3.2853 5.5388 1.5023 -0.032 -0.907 -0.420 119 160 142 0 0
-3.2062 5.6375 1.4929 0.828 -0.180 -0.531 110 148 129 0 0
-2.8812 5.1797 1.5363 0.327 -0.722 -0.610 105 139 122 0 0
-2.7925 5.1999 1.5344 -0.160 -0.980 0.119 195 162 129 0 0
-2.7133 5.1447 1.5396 0.849 -0.197 0.490 204 171 142 0 0
-2.4976 5.0409 1.5494 -0.433 -0.547 0.716 200 169 138 0 0
-2.4824 5.0296 1.5504 -0.367 -0.339 0.866 182 152 126 0 0
-2.4685 5.0215 1.5512 -0.356 -0.287 0.889 164 139 114 0 0
-2.4523 5.0076 1.5525 -0.297 -0.213 0.931 146 126 101 0 0
-2.4378 4.9977 1.5535 -0.295 -0.181 0.938 135 115 94 0 0
-2.4206 4.9810 1.5550 -0.290 -0.181 0.940 133 114 96 0 0
-2.3581 4.9282 1.5600 -0.051 -0.196 0.979 130 116 101 0 0
-2.3417 4.9128 1.5615 0.018 -0.201 0.979 131 115 101 0 0
-2.3315 4.9131 1.5615 0.018 -0.204 0.979 125 112 98 0 0
-2.3137 4.8936 1.5633 0.178 -0.318 0.931 120 111 96 0 0
-2.3032 4.8932 1.5633 0.484 -0.318 0.815 93 88 78 0 0
-2.2841 4.9242 1.5604 0.686 -0.725 -0.061 151 123 98 0 0
-2.2759 4.9299 1.5598 0.610 -0.745 0.269 189 152 117 0 0
-2.2679 4.9362 1.5592 0.610 -0.745 0.269 199 163 127 0 0
-2.2602 4.9434 1.5585 0.740 -0.385 0.552 198 162 126 0 0
-2.2501 4.9440 1.5585 0.232 -0.542 0.808 197 161 125 0 0
-2.4407 5.8277 1.4743 -0.026 -0.995 -0.097 196 156 120 0 0
-2.4357 5.8489 1.4723 0.216 -0.919 0.329 197 157 121 0 0
-2.4245 5.8522 1.4720 0.609 -0.746 0.270 197 157 121 0 0
-2.3792 5.9401 1.4635 0.727 -0.485 -0.485 170 132 102 0 0
-2.3690 5.9472 1.4629 0.641 -0.504 -0.578 164 127 95 0 0
-2.3609 5.9609 1.4616 0.507 -0.597 -0.621 154 120 87 0 0
-2.3386 6.0502 1.4530 0.245 -0.076 -0.967 78 67 51 0 0
-2.3408 6.0981 1.4485 0.244 -0.077 -0.967 50 45 34 0 0
-2.3324 6.1123 1.4471 0.555 -0.230 -0.799 47 46 40 0 0
-2.3266 6.1354 1.4449 0.532 -0.248 -0.809 47 51 45 0 0
-2.2819 6.2032 1.4384 0.565 -0.637 -0.524 82 112 96 0 0
-2.2654 6.2363 1.4352 0.352 -0.578 -0.737 74 110 92 0 0
-2.2477 6.2207 1.4367 0.613 -0.703 -0.360 75 109 92 0 0
-2.2374 6.2306 1.4358 0.518 -0.778 -0.356 76 110 93 0 0
-2.2352 6.2689 1.4321 0.664 -0.606 -0.438 75 109 92 0 0
-2.2167 6.3447 1.4249 0.941 -0.305 -0.144 77 106 91 0 0
-2.1947 6.4115 1.4185 0.651 -0.757 0.063 57 66 58 0 0
-2.1837 6.4209 1.4176 0.651 -0.757 0.063 62 82 70 0 0
-2.1726 6.4303 1.4167 0.651 -0.757 0.063 71 102 85 0 0
-2.1618 6.4407 1.4157 0.726 -0.661 0.192 70 101 85 0 0
-2.1511 6.4517 1.4146 0.763 -0.616 0.198 72 101 86 0 0
-2.3913 7.5390 1.3111 -0.019 -0.560 0.828 74 103 90 0 0
-2.3571 7.4680 1.3178 -0.580 -0.512 0.634 72 102 88 0 0
-2.2901 7.3901 1.3252 -0.801 -0.598 0.033 71 103 90 0 0
-2.2678 7.3635 1.3277 -0.612 -0.716 -0.334 77 108 97 0 0
-2.2473 7.3436 1.3296 -0.637 -0.686 -0.352 80 112 98 0 0
-2.1662 7.2643 1.3371 -0.497 -0.788 -0.365 57 71 63 0 0
-2.1782 7.3812 1.3260 -0.071 -0.316 0.946 46 56 49 0 0
-2.1605 7.3726 1.3268 0.170 -0.246 0.954 56 66 57 0 0
-2.0953 7.5763 1.3074 0.082 -0.274 0.958 122 112 62 0 0
-2.0799 7.5796 1.3070 -0.034 -0.253 0.967 146 134 84 0 0
-2.0689 7.6036 1.3047 0.112 -0.177 0.978 158 144 94 0 0
-2.0542 7.6103 1.3041 0.452 -0.274 0.849 136 120 68 0 0
-2.0336 7.5893 1.3061 0.095 -0.225 0.970 131 116 68 0 0
-2.0171 7.5871 1.3063 0.112 -0.166 0.980 128 116 78 0 0
-2.0053 7.6082 1.3043 -0.052 -0.185 0.981 117 109 85 0 0
-1.9952 7.6384 1.3014 -0.736 -0.524 0.428 98 92 77 0 0
-1.9733 7.6101 1.3041 -0.775 -0.518 0.361 61 55 42 0 0
-1.9514 7.5811 1.3068 -0.777 -0.570 0.266 36 34 27 0 0
-1.9309 7.5583 1.3090 -0.684 -0.604 0.410 35 39 34 0 0
-1.9076 7.5213 1.3125 -0.776 -0.627 0.074 41 43 39 0 0
-1.8865 7.4944 1.3150 -0.712 -0.691 -0.121 42 44 45 0 0
-1.8666 7.4736 1.3170 -0.712 -0.691 -0.121 42 45 49 0 0
-1.8489 7.4639 1.3179 -0.597 -0.802 0.025 43 47 50 0 0
-1.8233 7.4108 1.3230 -0.653 -0.647 -0.394 47 51 54 0 0
-1.8002 7.3705 1.3268 -0.540 -0.595 -0.596 45 49 51 0 0
-1.7197 7.3578 1.3280 -0.500 -0.866 -0.022 65 74 65 0 0
-1.6970 7.3158 1.3320 0.315 -0.899 -0.303 69 81 67 0 0
-1.6652 7.3117 1.3324 -0.061 -0.764 -0.642 87 100 83 0 0
-1.6050 7.3241 1.3311 0.073 -0.981 -0.177 131 129 117 0 0
-1.5877 7.3127 1.3322 -0.352 -0.924 0.149 111 110 104 0 0
-1.5695 7.2952 1.3339 -0.366 -0.909 0.201 96 95 92 0 0
-1.5543 7.2970 1.3337 -0.205 -0.961 0.183 85 84 82 0 0
-1.5389 7.2979 1.3336 0.303 -0.931 0.204 85 84 83 0 0
-1.5233 7.2968 1.3337 0.390 -0.846 0.363 98 97 96 0 0
-1.5079 7.2981 1.3336 0.526 -0.833 0.171 120 120 115 0 0
-1.4925 7.2984 1.3335 0.680 -0.731 -0.047 132 131 123 0 0
-1.4480 7.4303 1.3209 0.659 -0.236 -0.715 54 56 73 0 0
-1.4384 7.4774 1.3164 0.683 -0.262 -0.682 53 57 79 0 0
-1.3060 7.7195 1.2933 0.582 -0.389 -0.714 64 71 100 0 0
-1.2922 7.7445 1.2909 0.582 -0.389 -0.714 62 68 100 0 0
-1.2774 7.7603 1.2894 0.684 -0.400 -0.610 51 57 88 0 0
-1.2640 7.7903 1.2865 0.699 -0.411 -0.585 40 47 77 0 0
-1.2518 7.8339 1.2823 0.829 -0.359 -0.429 56 62 92 0 0
-0.7020 7.8516 1.2803 -0.604 -0.414 -0.681 175 166 137 0 0
-0.3591 7.3440 1.3286 -0.959 -0.200 -0.201 49 51 47 0 0
-0.3450 7.2624 1.3363 -0.956 -0.203 -0.210 52 51 45 0 0
-0.3306 7.2103 1.3413 -0.930 -0.220 -0.294 68 65 57 0 0
-0.3165 7.1555 1.3465 -0.957 -0.270 -0.104 83 79 73 0 0
-0.3022 7.1195 1.3499 -0.835 -0.485 -0.260 79 76 69 0 0
-0.2878 7.0919 1.3526 -0.847 -0.488 -0.210 60 56 55 0 0
-0.2731 7.0772 1.3540 -0.555 -0.806 0.206 52 48 48 0 0
-0.2587 7.0591 1.3557 -0.625 -0.778 -0.067 51 46 48 0 0
-0.2437 7.0563 1.3559 -0.547 -0.805 -0.227 52 46 52 0 0
-0.1996 7.0342 1.3580 0.326 -0.896 -0.300 77 52 44 0 0
-0.1844 7.0394 1.3575 0.287 -0.891 -0.351 129 81 51 0 0
-0.1691 7.0467 1.3568 0.351 -0.885 -0.307 83 53 37 0 0
-0.1539 7.0528 1.3562 0.307 -0.882 -0.358 92 83 71 0 0
-0.0745 7.1289 1.3489 0.754 -0.580 -0.308 78 55 39 0 0
-0.0579 7.1515 1.3468 0.754 -0.580 -0.308 74 53 35 0 0
-0.0044 7.2700 1.3354 0.886 -0.362 -0.289 28 27 23 0 0
0.0892 7.2800 1.3344 0.931 -0.235 -0.280 31 30 25 0 0
0.1227 7.3097 1.3316 0.118 -0.914 -0.387 36 35 30 0 0
0.1384 7.3115 1.3314 0.106 -0.867 -0.486 39 38 33 0 0
0.2204 7.1962 1.3424 -0.388 -0.710 -0.588 48 45 39 0 0
0.4823 7.0944 1.3519 -0.470 -0.600 0.648 55 52 46 0 0
0.5200 7.0419 1.3569 -0.772 -0.533 0.347 51 48 43 0 0
0.5336 7.0323 1.3578 -0.842 -0.221 0.493 50 47 42 0 0
0.5740 6.9064 1.3698 -0.876 -0.439 0.200 45 42 35 0 0
0.5847 6.8814 1.3722 -0.916 -0.401 0.019 44 41 34 0 0
0.5958 6.8592 1.3743 -0.894 -0.351 0.280 47 44 37 0 0
0.6105 6.8592 1.3743 -0.436 -0.279 0.856 50 47 40 0 0
0.6217 6.8390 1.3762 -0.480 -0.266 0.836 52 49 42 0 0
0.6350 6.8312 1.3769 -0.296 -0.222 0.929 54 51 44 0 0
0.6476 6.8198 1.3780 -0.620 -0.142 0.772 55 52 45 0 0
0.7333 7.1479 1.3467 -0.138 -0.245 0.960 56 52 46 0 0
0.7446 7.1256 1.3488 -0.116 -0.347 0.931 56 52 45 0 0
0.7573 7.1117 1.3501 -0.461 -0.289 0.839 57 53 46 0 0
0.7604 7.0445 1.3565 -0.722 -0.488 0.490 56 52 45 0 0
0.8220 6.7465 1.3849 -0.901 -0.192 0.388 58 55 48 0 0
0.8394 6.6903 1.3903 -0.846 -0.496 -0.197 58 55 48 0 0
0.9018 6.0422 1.4520 0.575 -0.811 0.109 58 55 47 0 0
0.9175 6.0544 1.4509 0.540 -0.833 0.119 67 65 57 0 0
0.8498 4.7809 1.5723 0.912 -0.316 0.262 178 176 161 0 0
0.8594 4.7096 1.5791 -0.875 -0.434 0.214 147 61 71 0 0
0.8693 4.7096 1.5791 -0.876 -0.478 -0.060 88 46 44 0 0
0.8738 4.6913 1.5809 -0.877 -0.414 0.243 74 62 57 0 0
0.8784 4.6734 1.5826 -0.379 -0.658 0.651 77 65 59 0 0
0.8896 4.6779 1.5821 0.059 -0.932 0.358 76 58 52 0 0
0.8988 4.6757 1.5823 0.396 -0.759 0.516 99 68 67 0 0
0.9103 4.6810 1.5818 0.044 -0.980 0.194 143 73 76 0 0
0.9173 4.6716 1.5827 -0.137 -0.749 0.648 119 37 42 0 0
0.9313 4.6532 1.5845 -0.476 -0.480 0.737 109 50 54 0 0
0.9401 4.6500 1.5848 -0.586 -0.431 0.686 97 55 51 0 0
0.9473 4.6416 1.5856 -0.586 -0.431 0.686 118 55 56 0 0
0.9917 4.6275 1.5869 -0.201 -0.574 0.794 213 205 188 0 0
0.9973 4.6149 1.5881 0.054 -0.630 0.775 227 217 200 0 0
1.0071 4.6149 1.5881 0.182 -0.669 0.720 217 204 182 0 0
1.0196 4.6234 1.5873 0.071 -0.687 0.723 188 168 147 0 0
1.0287 4.6212 1.5875 0.138 -0.676 0.724 190 177 166 0 0
1.0390 4.6228 1.5873 0.157 -0.630 0.761 207 198 179 0 0
1.0486 4.6224 1.5874 0.092 -0.605 0.791 215 195 176 0 0
1.0651 4.6136 1.5882 -0.141 -0.427 0.893 182 121 117 0 0
1.0720 4.6053 1.5890 -0.117 -0.366 0.923 158 67 72 0 0
1.0800 4.6004 1.5894 -0.116 -0.420 0.900 125 31 37 0 0
1.0884 4.5968 1.5898 -0.112 -0.404 0.908 138 42 48 0 0
1.0974 4.5947 1.5900 -0.112 -0.404 0.908 128 35 40 0 0
1.1273 4.5970 1.5897 0.110 -0.438 0.892 154 47 60 0 0
1.1495 4.6046 1.5890 0.108 -0.362 0.926 204 157 157 0 0
1.1612 4.6098 1.5885 -0.088 -0.389 0.917 213 186 177 0 0
1.1790 4.6055 1.5889 -0.110 -0.377 0.920 178 125 119 0 0
1.1920 4.6141 1.5881 0.176 -0.395 0.902 164 84 87 0 0
1.1978 4.6036 1.5891 -0.048 -0.351 0.935 170 92 94 0 0
1.2041 4.5946 1.5899 -0.190 -0.319 0.929 173 87 92 0 0
1.2250 4.5984 1.5896 -0.004 -0.283 0.959 153 49 60 0 0
1.2340 4.5966 1.5897 0.180 -0.347 0.920 179 108 116 0 0
1.2467 4.6043 1.5890 0.041 -0.292 0.955 240 219 211 0 0
1.2596 4.6124 1.5882 0.156 -0.299 0.941 240 227 214 0 0
1.2609 4.5909 1.5902 -0.360 -0.305 0.882 222 209 194 0 0
1.3365 4.5858 1.5907 -0.002 -0.508 0.861 215 206 196 0 0
1.3442 4.5810 1.5911 -0.187 -0.492 0.850 224 216 208 0 0
1.3612 4.5753 1.5917 0.096 -0.667 0.738 242 237 226 0 0
1.3711 4.5760 1.5916 0.226 -0.674 0.703 250 247 237 0 0
1.4545 4.5897 1.5902 -0.330 -0.196 0.923 253 252 240 0 0
1.5497 4.5646 1.5926 0.057 -0.172 0.983 253 244 233 0 0
1.6339 4.5191 1.5969 -0.955 -0.168 0.244 202 197 187 0 0
1.6336 4.4987 1.5988 -0.927 -0.186 0.325 178 172 163 0 0
1.6489 4.5105 1.5977 0.425 -0.343 0.837 154 147 139 0 0
1.6621 4.5181 1.5970 0.671 -0.483 0.562 133 126 118 0 0
1.6868 4.5490 1.5940 0.671 -0.483 0.562 118 111 103 0 0
1.7100 4.5765 1.5914 0.696 -0.499 0.516 204 197 189 0 0
1.7309 4.5993 1.5892 0.568 -0.462 0.681 241 234 225 0 0
1.7360 4.5900 1.5901 0.310 -0.376 0.873 240 234 225 0 0
1.7424 4.5832 1.5907 0.103 -0.202 0.974 241 234 225 0 0
1.7799 4.5616 1.5928 0.404 -0.459 0.791 240 233 222 0 0
1.7956 4.5735 1.5916 0.404 -0.459 0.791 232 222 212 0 0
1.8441 4.5371 1.5951 0.416 -0.428 0.802 178 171 161 0 0
1.8425 4.5160 1.5971 0.652 -0.467 0.597 196 189 179 0 0
1.8687 4.5473 1.5941 0.700 -0.475 0.533 212 206 196 0 0
1.8996 4.5872 1.5903 0.631 -0.477 0.612 158 150 138 0 0
1.9068 4.5824 1.5907 0.091 -0.321 0.943 102 95 85 0 0
1.9152 4.5800 1.5909 0.066 -0.309 0.949 81 73 63 0 0
1.9237 4.5778 1.5911 -0.085 -0.256 0.963 68 58 51 0 0
1.9354 4.5285 1.5958 0.631 -0.570 0.527 70 60 53 0 0
1.9569 4.5502 1.5938 0.638 -0.560 0.528 70 62 54 0 0
1.9909 4.5767 1.5912 0.482 -0.788 0.384 235 231 222 0 0
2.0378 4.5740 1.5914 0.137 -0.323 0.936 231 227 218 0 0
2.0479 4.5748 1.5914 0.379 -0.398 0.836 230 225 217 0 0
2.0661 4.5897 1.5899 0.357 -0.391 0.848 230 229 216 0 0
2.0808 4.5983 1.5891 0.177 -0.325 0.929 148 93 92 0 0
2.0939 4.6042 1.5885 0.171 -0.318 0.933 120 44 49 0 0
2.1066 4.6093 1.5880 0.177 -0.325 0.929 121 41 47 0 0
2.1196 4.6148 1.5875 0.177 -0.325 0.929 125 45 50 0 0
2.1323 4.6032 1.5886 0.083 -0.276 0.958 217 201 183 0 0
2.1818 4.6045 1.5884 0.003 -0.259 0.966 116 33 35 0 0
2.1936 4.6079 1.5881 -0.068 -0.276 0.959 127 47 51 0 0
2.2024 4.6063 1.5883 -0.068 -0.276 0.959 119 37 42 0 0
2.2090 4.6011 1.5888 -0.331 -0.215 0.919 138 65 70 0 0
2.2150 4.5948 1.5894 -0.318 -0.215 0.923 206 170 161 0 0
2.2257 4.5964 1.5892 0.004 -0.307 0.952 209 197 180 0 0
2.2355 4.5965 1.5892 -0.013 -0.269 0.963 208 196 176 0 0
2.2455 4.5971 1.5891 -0.022 -0.261 0.965 217 203 184 0 0
2.3412 4.5943 1.5893 0.017 -0.298 0.954 194 161 143 0 0
2.3500 4.5929 1.5895 -0.173 -0.279 0.945 128 62 57 0 0
2.4619 4.6301 1.5859 -0.024 -0.262 0.965 122 99 80 0 0
2.8997 5.1329 1.5377 0.586 -0.752 0.300 24 23 18 0 0
-3.4455 5.2530 1.5186 0.608 -0.744 0.278 173 211 200 0 0
-3.4248 5.2746 1.5165 0.284 -0.952 -0.118 167 207 196 0 0
-3.4153 5.2967 1.5143 0.855 -0.513 0.077 169 209 198 0 0
-3.4117 5.3100 1.5130 0.897 -0.289 -0.334 168 208 197 0 0
-3.4101 5.3269 1.5114 0.899 -0.302 -0.316 166 208 196 0 0
-3.4147 5.3750 1.5067 -0.021 -0.781 -0.624 166 208 196 0 0
-3.4052 5.3782 1.5064 -0.116 -0.659 -0.743 166 208 196 0 0
-3.3892 5.3698 1.5072 -0.255 -0.763 -0.593 165 207 195 0 0
-3.3716 5.3584 1.5083 -0.161 -0.933 -0.321 164 206 194 0 0
-3.3638 5.3645 1.5077 0.379 -0.647 -0.661 164 206 194 0 0
-3.3571 5.3729 1.5068 0.640 -0.425 -0.640 163 205 193 0 0
-3.3498 5.3802 1.5061 0.634 -0.384 -0.671 162 204 192 0 0
-3.2883 5.5446 1.4901 -0.032 -0.907 -0.420 119 160 142 0 0
-3.2122 5.6497 1.4798 0.905 -0.164 -0.394 105 144 125 0 0
-2.8872 5.1922 1.5242 0.280 -0.955 0.102 102 136 119 0 0
-2.8427 5.1443 1.5289 0.847 -0.509 0.155 103 136 119 0 0
-2.7987 5.1897 1.5244 -0.477 -0.868 -0.138 193 160 127 0 0
-2.7838 5.1809 1.5253 -0.492 -0.867 -0.082 194 161 127 0 0
-2.7748 5.1849 1.5249 -0.642 -0.702 0.309 197 164 131 0 0
-2.7520 5.1587 1.5274 -0.477 -0.756 0.449 203 169 140 0 0
-2.7379 5.1514 1.5281 -0.275 -0.743 0.611 204 170 142 0 0
-2.7215 5.1391 1.5293 -0.536 -0.762 0.363 204 170 142 0 0
-2.5466 5.0568 1.5372 -0.460 -0.847 0.267 189 158 133 0 0
-2.5358 5.0564 1.5373 -0.605 -0.608 0.515 172 143 122 0 0
-2.5161 5.0345 1.5394 -0.521 -0.439 0.732 157 129 109 0 0
-2.4999 5.0209 1.5407 -0.328 -0.250 0.911 141 117 95 0 0
-2.4834 5.0065 1.5421 -0.309 -0.204 0.929 131 112 92 0 0
-2.4650 4.9872 1.5440 -0.280 -0.183 0.942 130 115 98 0 0
-2.4293 4.9507 1.5475 -0.281 -0.183 0.942 132 117 100 0 0
-2.4124 4.9346 1.5491 -0.258 -0.180 0.949 132 118 100 0 0
-2.3960 4.9196 1.5505 -0.255 -0.179 0.950 130 116 100 0 0
-2.3821 4.9107 1.5514 -0.173 -0.169 0.970 131 117 102 0 0
-2.3667 4.8978 1.5526 -0.108 -0.187 0.976 133 119 103 0 0
-2.3409 4.8844 1.5539 0.041 -0.181 0.983 126 113 97 0 0
-2.3300 4.8829 1.5541 0.098 -0.189 0.977 125 114 95 0 0
-2.3124 4.8640 1.5559 0.321 -0.246 0.914 103 98 82 0 0
-2.3013 4.8614 1.5562 0.374 -0.402 0.835 73 71 57 0 0
-2.2923 4.8647 1.5558 0.511 -0.474 0.716 78 63 51 0 0
-2.2942 4.8965 1.5527 0.886 -0.463 -0.020 148 117 93 0 0
-2.2930 4.9203 1.5504 0.767 -0.624 -0.148 197 164 132 0 0
-2.2858 4.9286 1.5496 0.712 -0.637 -0.294 187 152 120 0 0
-2.2816 4.9727 1.5453 0.691 -0.347 -0.634 197 161 125 0 0
-2.2570 4.9347 1.5490 0.763 -0.344 0.548 197 161 125 0 0
-2.4769 5.7909 1.4656 0.838 -0.536 0.102 196 156 121 0 0
-2.4690 5.8031 1.4644 0.757 -0.633 0.164 196 156 121 0 0
-2.4542 5.7959 1.4651 0.690 -0.596 -0.411 195 155 120 0 0
-2.4457 5.8067 1.4640 0.591 -0.621 -0.515 195 155 120 0 0
-2.4383 5.8207 1.4627 0.558 -0.759 -0.336 197 157 122 0 0
-2.4286 5.8282 1.4619 0.558 -0.759 -0.336 193 152 118 0 0
-2.4216 5.8436 1.4604 0.783 -0.559 -0.274 176 136 101 0 0
-2.3878 5.9282 1.4522 0.753 -0.579 -0.313 150 112 84 0 0
-2.3808 5.9451 1.4505 0.809 -0.574 -0.125 153 116 91 0 0
-2.3700 5.9502 1.4500 0.685 -0.483 -0.546 150 117 92 0 0
-2.3867 6.1615 1.4294 0.220 -0.082 -0.972 48 46 37 0 0
-2.3338 6.1589 1.4296 0.560 -0.338 -0.757 48 52 44 0 0
-2.3272 6.1799 1.4276 0.698 -0.305 -0.647 63 78 68 0 0
-2.2565 6.2509 1.4206 0.537 -0.287 -0.793 75 109 92 0 0
-2.2482 6.2681 1.4189 0.548 -0.305 -0.779 75 109 92 0 0
-2.2276 6.2425 1.4214 -0.607 -0.794 0.015 75 109 92 0 0
-2.2308 6.3001 1.4158 0.959 -0.217 0.182 75 109 92 0 0
-2.2212 6.3133 1.4145 0.968 -0.217 -0.128 74 108 91 0 0
-2.2210 6.3601 1.4099 0.910 -0.372 0.182 75 106 90 0 0
-2.1631 6.4455 1.4016 0.714 -0.617 0.331 74 107 90 0 0
-2.3906 7.4751 1.3013 0.046 -0.244 0.969 75 103 89 0 0
-2.3765 7.4816 1.3006 -0.069 -0.255 0.965 74 102 89 0 0
-2.3593 7.4767 1.3011 -0.098 -0.270 0.958 73 101 88 0 0
-2.3414 7.4686 1.3019 -0.021 -0.244 0.970 76 106 93 0 0
-2.2623 7.3413 1.3143 -0.462 -0.861 0.213 90 121 113 0 0
-2.2442 7.3312 1.3152 -0.591 -0.802 -0.082 92 121 112 0 0
-2.2264 7.3220 1.3161 -0.791 -0.598 0.132 93 117 106 0 0
