ply
format ascii 1.0
element vertex 838
property float x
property float y
property float z
property float nx
property float ny
property float nz
property uchar diffuse_red
property uchar diffuse_green
property uchar diffuse_blue
property uchar class
property uchar detection
end_header
1.1538 4.8296 2.9061 -0.704 -0.693 -0.155 156 154 139 0 0
1.2526 4.6896 2.8820 0.218 -0.951 -0.219 133 133 121 0 0
1.2627 4.6918 2.8827 0.218 -0.951 -0.219 135 135 122 0 0
1.2919 4.6908 2.8833 -0.480 -0.840 -0.254 69 61 52 0 0
1.3047 4.7085 2.8870 0.359 -0.862 -0.358 70 67 55 0 0
1.3152 4.7126 2.8881 0.276 -0.861 -0.427 58 56 45 0 0
1.3234 4.7033 2.8865 -0.178 -0.786 -0.592 57 55 43 0 0
1.3333 4.7045 2.8870 -0.209 -0.945 -0.250 57 55 43 0 0
1.3420 4.6985 2.8861 0.294 -0.902 -0.317 57 57 45 0 0
1.3700 4.6918 2.8856 -0.310 -0.918 -0.247 33 32 24 0 0
1.3791 4.6884 2.8852 -0.239 -0.957 -0.166 36 37 30 0 0
1.6244 5.1493 2.9799 0.586 -0.794 -0.161 29 30 24 0 0
1.6381 5.1636 2.9831 -0.141 -0.930 -0.339 29 30 24 0 0
1.6494 5.1667 2.9839 0.044 -0.834 -0.550 26 27 21 0 0
1.6836 5.1777 2.9870 0.212 -0.651 -0.729 34 36 30 0 0
1.8143 4.8426 2.9264 0.095 -0.965 -0.246 87 81 68 0 0
1.8363 4.8158 2.9218 -0.629 -0.737 -0.246 239 144 121 0 0
1.8440 4.8086 2.9206 -0.516 -0.816 -0.261 240 176 145 0 0
1.8774 4.7897 2.9179 -0.327 -0.932 -0.156 103 93 79 0 0
1.8876 4.7916 2.9186 0.020 -0.990 -0.137 98 92 75 0 0
1.9101 4.6420 2.8905 -0.890 -0.421 -0.173 231 228 220 0 0
1.9161 4.6311 2.8886 -0.903 -0.335 -0.268 236 230 220 0 0
1.9221 4.6205 2.8867 -0.828 -0.515 -0.223 235 230 219 0 0
1.9356 4.6040 2.8839 0.009 -0.989 -0.146 232 228 217 0 0
1.9448 4.6040 2.8842 0.009 -0.989 -0.146 231 229 220 0 0
1.9540 4.6041 2.8845 0.009 -0.989 -0.146 239 234 225 0 0
2.0569 4.5556 2.8779 -0.943 -0.328 -0.056 63 146 192 0 0
2.2531 4.4141 2.8561 -0.756 -0.618 -0.215 77 112 134 0 0
2.2635 4.3968 2.8531 -0.695 -0.696 -0.179 67 80 82 0 0
2.2819 4.3783 2.8501 -0.033 -0.998 -0.049 174 178 175 0 0
2.2914 4.3807 2.8508 0.254 -0.951 -0.174 100 110 113 0 0
2.2993 4.3792 2.8507 0.112 -0.972 -0.204 54 71 79 0 0
2.3479 4.2927 2.8354 -0.952 -0.236 -0.196 78 107 134 0 0
2.3612 4.2462 2.8269 -0.908 -0.309 -0.285 114 59 116 0 0
-3.4524 4.5437 2.7166 -0.105 -0.932 -0.348 178 210 204 0 0
-3.4491 4.6144 2.7300 -0.385 -0.902 -0.197 170 206 196 0 0
-3.1760 5.1255 2.8341 0.859 -0.448 -0.249 157 203 193 0 0
-3.1307 5.1770 2.8451 0.673 -0.710 -0.210 155 202 192 0 0
-3.1307 5.2171 2.8527 0.185 -0.973 -0.136 155 202 192 0 0
-2.9449 5.6045 2.9311 0.817 -0.547 -0.185 151 201 192 0 0
-2.9369 5.6150 2.9333 0.938 -0.193 0.290 148 198 189 0 0
-2.9341 5.6344 2.9370 0.981 -0.193 -0.005 149 199 190 0 0
-2.9264 5.6703 2.9440 0.929 -0.370 -0.008 147 197 188 0 0
-2.9082 5.7132 2.9526 -0.086 -0.977 0.196 147 197 188 0 0
-2.8846 5.7227 2.9551 0.685 -0.727 -0.044 145 195 186 0 0
-2.8780 5.7364 2.9578 0.690 -0.717 0.099 147 197 188 0 0
-2.8685 5.7453 2.9598 0.644 -0.749 -0.156 145 195 186 0 0
-2.8557 5.7482 2.9607 0.719 -0.695 -0.009 147 197 188 0 0
-2.8507 5.7651 2.9640 0.923 -0.365 0.121 146 196 187 0 0
-2.8401 5.7722 2.9656 0.830 -0.466 0.306 147 197 188 0 0
-2.8229 5.8465 2.9802 0.795 -0.389 0.465 145 196 187 0 0
-2.8159 5.8605 2.9830 0.770 -0.421 0.479 146 197 188 0 0
-2.8048 5.8671 2.9846 0.817 -0.452 -0.358 144 195 186 0 0
-2.7968 5.8795 2.9871 0.817 -0.452 -0.358 147 197 188 0 0
-2.7964 5.9059 2.9921 0.960 -0.280 -0.011 145 195 186 0 0
-2.7956 5.9321 2.9971 0.965 -0.260 0.014 146 196 187 0 0
-2.7800 5.9583 3.0025 0.634 -0.725 -0.270 145 195 186 0 0
-2.7826 5.9912 3.0087 -0.092 -0.991 0.095 143 193 184 0 0
-2.7657 5.9878 3.0085 0.417 -0.894 0.166 146 196 187 0 0
-2.7599 6.0050 3.0119 0.876 -0.476 -0.080 146 196 187 0 0
-2.7565 6.0272 3.0162 0.962 -0.259 -0.080 145 195 186 0 0
-2.7475 6.0387 3.0186 0.950 -0.287 -0.124 141 191 182 0 0
-2.7373 6.0481 3.0206 0.913 -0.337 -0.228 141 192 183 0 0
-2.7342 6.0712 3.0251 0.656 -0.558 -0.508 143 194 185 0 0
-2.7244 6.0816 3.0273 -0.095 -0.958 -0.270 143 194 185 0 0
-2.7134 6.0896 3.0292 0.249 -0.604 -0.757 142 193 184 0 0
-2.6989 6.0909 3.0298 0.240 -0.638 -0.732 141 192 183 0 0
-2.6879 6.0990 3.0316 0.843 -0.528 -0.105 142 193 184 0 0
-2.6781 6.1097 3.0339 0.812 -0.577 0.091 142 193 184 0 0
-2.6662 6.1162 3.0355 0.910 -0.314 -0.271 141 192 183 0 0
-2.6811 6.1763 3.0464 0.961 -0.246 -0.126 140 191 184 0 0
-2.6755 6.1959 3.0503 0.961 -0.246 -0.126 142 193 186 0 0
-2.6713 6.2182 3.0546 0.899 -0.438 -0.023 141 192 185 0 0
-2.6596 6.2257 3.0564 0.706 -0.494 -0.507 139 190 183 0 0
-2.6520 6.2418 3.0596 0.914 -0.398 -0.079 140 191 184 0 0
-2.6452 6.2594 3.0631 0.944 -0.311 -0.114 140 193 185 0 0
-2.6412 6.2831 3.0677 0.911 -0.413 0.009 140 193 185 0 0
-2.6270 6.3180 3.0747 0.953 -0.220 -0.208 142 195 187 0 0
-2.6046 6.3692 3.0850 0.637 -0.682 -0.360 140 193 185 0 0
-2.5940 6.3799 3.0873 0.693 -0.620 -0.368 136 191 182 0 0
-2.5822 6.3883 3.0892 0.664 -0.725 -0.185 136 192 183 0 0
-2.5460 6.4118 3.0947 0.176 -0.984 -0.018 140 193 185 0 0
-2.5309 6.4131 3.0953 0.765 -0.486 -0.423 136 191 183 0 0
-2.5268 6.4386 3.1003 0.759 -0.624 0.186 137 193 184 0 0
-2.5170 6.4517 3.1030 0.704 -0.688 0.176 135 191 182 0 0
-2.5095 6.4700 3.1067 0.962 -0.271 -0.042 133 189 180 0 0
-2.5015 6.4876 3.1102 0.989 -0.140 0.039 135 191 182 0 0
-2.5018 6.5237 3.1170 0.990 -0.122 0.072 132 188 179 0 0
-2.4988 6.5528 3.1226 0.977 -0.135 0.164 133 189 180 0 0
-2.4953 6.5809 3.1280 0.984 -0.134 0.118 135 191 182 0 0
-2.4485 6.6582 3.1439 0.923 -0.300 -0.240 134 190 181 0 0
-2.4392 6.6745 3.1473 0.936 -0.291 -0.199 132 188 179 0 0
-2.4329 6.6977 3.1518 0.918 -0.296 -0.266 131 187 178 0 0
-2.4269 6.7220 3.1566 0.878 -0.387 -0.280 131 187 178 0 0
-2.4180 6.7396 3.1602 0.878 -0.387 -0.280 130 186 177 0 0
-2.4109 6.7616 3.1645 0.932 -0.344 -0.113 131 187 178 0 0
-2.3960 6.8046 3.1731 0.760 -0.645 -0.072 132 185 177 0 0
-2.3819 6.8105 3.1746 0.708 -0.680 -0.190 132 186 178 0 0
-2.3656 6.8513 3.1827 0.581 -0.612 -0.536 128 184 175 0 0
-2.3531 6.8612 3.1849 0.581 -0.612 -0.536 127 182 175 0 0
-2.3409 6.9555 3.2031 -0.490 -0.671 0.557 125 181 172 0 0
-2.3148 6.9317 3.1993 0.731 -0.397 -0.555 124 180 171 0 0
-2.3082 6.9576 3.2044 0.951 -0.160 -0.264 125 181 172 0 0
-2.3024 6.9855 3.2098 0.933 -0.269 -0.239 121 177 168 0 0
-2.2922 7.0024 3.2133 0.691 -0.695 -0.196 121 177 168 0 0
-2.2839 7.0246 3.2177 0.608 -0.761 -0.227 120 176 167 0 0
-2.2644 7.0620 3.2253 0.866 -0.479 -0.144 112 168 159 0 0
-2.2386 7.0832 3.2301 -0.681 -0.680 -0.272 103 160 153 0 0
-2.2057 7.0406 3.2229 -0.819 -0.540 -0.191 66 106 94 0 0
-2.0996 6.9798 3.2143 -0.761 -0.643 -0.084 59 79 70 0 0
-2.0033 6.8954 3.2009 0.380 -0.909 -0.175 42 44 39 0 0
-1.0443 6.0270 3.0626 0.261 -0.276 0.925 38 40 34 0 0
-1.0435 6.0808 3.0728 0.795 -0.371 0.480 41 42 37 0 0
-1.0264 6.0684 3.0709 0.481 -0.318 0.817 43 44 39 0 0
-0.9834 5.9479 3.0493 0.088 -0.332 0.939 46 49 44 0 0
-0.9699 5.9492 3.0499 0.003 -0.324 0.946 48 52 46 0 0
-0.9600 5.9653 3.0532 -0.080 -0.328 0.941 60 65 59 0 0
-0.9421 5.9479 3.0504 -0.020 -0.317 0.948 69 73 68 0 0
-0.9183 5.9641 3.0541 0.170 -0.215 0.962 82 86 80 0 0
-0.9139 6.0054 3.0621 0.198 -0.204 0.959 85 89 82 0 0
-0.9015 6.0121 3.0637 0.161 -0.212 0.964 88 92 85 0 0
-0.8948 6.0442 3.0699 0.151 -0.208 0.966 86 90 83 0 0
-0.8856 6.0659 3.0743 0.009 -0.234 0.972 87 91 84 0 0
-0.8726 6.0703 3.0755 0.030 -0.235 0.972 85 89 82 0 0
-0.7295 6.1963 3.1032 -0.766 -0.367 -0.528 102 105 98 0 0
-0.6900 6.1362 3.0929 -0.796 -0.396 -0.457 105 106 98 0 0
-0.5611 5.8752 3.0470 -0.429 -0.898 -0.102 78 80 73 0 0
-0.5185 5.8602 3.0453 -0.237 -0.940 0.246 121 123 117 0 0
-0.5046 5.8566 3.0450 -0.237 -0.940 0.246 125 126 120 0 0
-0.4894 5.8449 3.0432 -0.529 -0.717 0.454 125 126 120 0 0
-0.3930 5.7309 3.0242 -0.903 -0.427 0.046 138 138 130 0 0
-0.3092 5.7820 3.0362 0.249 -0.310 0.917 146 146 136 0 0
-0.2481 5.5084 2.9861 0.593 -0.419 0.688 150 150 140 0 0
-0.1992 5.6198 3.0085 -0.779 -0.620 -0.095 151 151 141 0 0
-0.1836 5.5937 3.0040 -0.504 -0.855 -0.124 152 152 142 0 0
-0.1708 5.5917 3.0039 -0.081 -0.981 0.175 152 152 142 0 0
-0.1321 5.5809 3.0029 -0.503 -0.848 0.168 151 151 141 0 0
-0.1186 5.5716 3.0016 -0.289 -0.950 -0.118 150 150 140 0 0
-0.1048 5.5584 2.9994 -0.227 -0.816 -0.531 153 153 143 0 0
-0.0917 5.5511 2.9984 -0.489 -0.704 -0.515 153 153 143 0 0
-0.0784 5.5423 2.9971 -0.521 -0.728 -0.446 153 153 143 0 0
-0.0661 5.5429 2.9975 -0.428 -0.733 -0.529 153 153 143 0 0
-0.0530 5.5355 2.9965 -0.736 -0.568 -0.369 155 155 146 0 0
-0.0131 5.5022 2.9913 -0.577 -0.631 -0.519 153 153 143 0 0
0.0391 5.4608 2.9849 -0.501 -0.819 -0.279 157 154 145 0 0
0.0519 5.4515 2.9835 -0.534 -0.816 -0.223 158 155 146 0 0
0.0645 5.4457 2.9827 -0.037 -0.995 -0.092 160 157 148 0 0
0.1149 5.4129 2.9778 -0.447 -0.663 -0.600 155 152 143 0 0
0.1535 5.3680 2.9704 -0.813 -0.552 -0.184 159 156 147 0 0
0.1785 5.3436 2.9665 0.268 -0.912 -0.309 155 155 145 0 0
0.1902 5.3467 2.9674 0.268 -0.912 -0.309 156 156 146 0 0
0.2011 5.3646 2.9711 0.693 -0.569 -0.443 157 156 146 0 0
0.2114 5.3958 2.9772 0.848 -0.326 -0.418 160 157 148 0 0
0.2224 5.4148 2.9811 0.873 -0.360 -0.328 161 158 149 0 0
0.2356 5.3860 2.9760 -0.512 -0.806 -0.298 159 156 147 0 0
0.2598 5.3732 2.9743 -0.198 -0.387 -0.900 159 157 147 0 0
0.2989 5.2627 2.9544 0.957 -0.285 0.054 156 154 145 0 0
0.3094 5.2969 2.9612 0.948 -0.306 0.086 157 154 145 0 0
1.2535 4.6923 2.8724 0.445 -0.868 -0.220 135 133 120 0 0
1.2637 4.6947 2.8731 0.213 -0.936 -0.282 133 131 117 0 0
1.2928 4.6932 2.8736 -0.480 -0.840 -0.254 71 65 54 0 0
1.3058 4.7122 2.8776 0.511 -0.818 -0.265 69 66 55 0 0
1.3164 4.7168 2.8787 0.440 -0.876 -0.196 56 55 44 0 0
1.3250 4.7096 2.8776 -0.178 -0.786 -0.592 57 55 43 0 0
1.3343 4.7068 2.8773 -0.209 -0.945 -0.250 57 55 43 0 0
1.3424 4.6975 2.8758 0.315 -0.932 -0.181 59 57 45 0 0
1.3529 4.7017 2.8769 -0.540 -0.829 -0.146 77 75 63 0 0
1.3697 4.6870 2.8745 -0.739 -0.674 -0.018 33 32 27 0 0
1.3886 4.6845 2.8746 -0.244 -0.969 0.042 36 35 30 0 0
1.6256 5.1523 2.9695 0.586 -0.794 -0.161 29 30 24 0 0
1.6396 5.1677 2.9728 -0.229 -0.972 -0.055 28 29 23 0 0
1.6514 5.1731 2.9742 -0.025 -0.846 -0.533 24 25 19 0 0
1.6620 5.1734 2.9745 0.171 -0.816 -0.552 25 26 20 0 0
1.6898 5.2026 2.9808 0.089 -0.443 -0.892 35 36 30 0 0
1.7112 5.2032 2.9815 0.817 -0.573 -0.066 64 67 61 0 0
1.7090 4.9331 2.9303 -0.097 -0.885 -0.455 40 44 54 0 0
1.8154 4.8448 2.9165 0.108 -0.972 -0.209 87 80 67 0 0
1.8374 4.8181 2.9120 -0.629 -0.737 -0.246 239 143 119 0 0
1.8705 4.7977 2.9091 -0.496 -0.846 -0.196 104 89 76 0 0
1.8794 4.7949 2.9088 -0.142 -0.977 -0.161 100 93 77 0 0
1.8885 4.7930 2.9087 0.020 -0.990 -0.137 97 92 78 0 0
1.9113 4.6444 2.8812 -0.906 -0.379 -0.189 216 216 209 0 0
1.9175 4.6343 2.8794 -0.897 -0.349 -0.271 237 231 221 0 0
1.9233 4.6228 2.8774 -0.845 -0.499 -0.192 238 231 219 0 0
1.9372 4.6079 2.8750 0.128 -0.980 -0.152 202 201 191 0 0
1.9459 4.6059 2.8748 0.100 -0.994 -0.037 225 225 215 0 0
1.9551 4.6062 2.8751 0.059 -0.987 -0.148 235 231 222 0 0
2.2034 4.4420 2.8508 -0.605 -0.753 -0.260 83 118 140 0 0
2.2645 4.3982 2.8442 -0.695 -0.696 -0.179 72 81 82 0 0
2.2838 4.3820 2.8416 0.008 -0.993 -0.116 138 144 137 0 0
2.2918 4.3805 2.8416 -0.021 -0.952 -0.305 62 73 73 0 0
2.3006 4.3812 2.8419 0.112 -0.972 -0.204 52 67 76 0 0
2.3626 4.2485 2.8185 -0.914 -0.360 -0.186 114 62 116 0 0
-3.4553 4.5480 2.7061 -0.105 -0.932 -0.348 175 205 199 0 0
-3.4419 4.5467 2.7062 -0.160 -0.912 -0.378 176 207 200 0 0
-3.4501 4.6165 2.7190 -0.620 -0.776 -0.120 170 206 196 0 0
-3.1822 5.1355 2.8235 0.879 -0.274 -0.391 157 203 193 0 0
-3.1471 5.1823 2.8332 0.634 -0.426 -0.645 155 202 192 0 0
-3.1317 5.1796 2.8331 0.673 -0.710 -0.210 155 202 192 0 0
-3.1442 5.2180 2.8399 0.853 -0.480 -0.202 155 202 192 0 0
-3.1144 5.1940 2.8363 0.251 -0.922 -0.294 155 202 192 0 0
-3.1037 5.2386 2.8449 0.915 -0.231 0.330 152 201 192 0 0
-2.9310 5.6305 2.9230 0.944 -0.244 0.221 148 198 189 0 0
-2.9279 5.6740 2.9312 0.874 -0.371 0.312 148 198 189 0 0
-2.8796 5.7406 2.9450 0.904 -0.386 -0.185 145 195 186 0 0
-2.8636 5.7380 2.9449 0.874 -0.473 -0.108 147 197 188 0 0
-2.8592 5.7558 2.9484 0.621 -0.730 -0.286 145 195 186 0 0
-2.8503 5.7658 2.9505 0.747 -0.599 -0.287 145 195 186 0 0
-2.8451 5.7824 2.9537 0.750 -0.596 -0.288 146 196 187 0 0
-2.8362 5.7926 2.9559 0.750 -0.596 -0.288 143 193 184 0 0
-2.8198 5.8157 2.9607 0.935 -0.142 -0.326 145 195 186 0 0
-2.8178 5.8386 2.9650 0.945 -0.156 -0.289 145 196 187 0 0
-2.8127 5.8560 2.9684 0.944 -0.153 -0.291 143 194 185 0 0
-2.7995 5.8859 2.9744 0.838 -0.430 -0.336 145 195 186 0 0
-2.7979 5.9102 2.9789 0.933 -0.356 0.054 145 195 186 0 0
-2.7928 5.9283 2.9825 0.890 -0.232 0.393 145 195 186 0 0
-2.7854 5.9421 2.9852 0.930 -0.331 0.160 144 194 185 0 0
-2.7635 5.9850 2.9939 0.545 -0.834 0.087 143 193 184 0 0
-2.7634 6.0132 2.9992 0.957 -0.291 0.014 145 195 186 0 0
-2.7518 6.0197 3.0007 0.983 -0.180 -0.022 143 193 184 0 0
-2.7476 6.0404 3.0047 0.962 -0.263 -0.075 146 196 187 0 0
-2.7392 6.0532 3.0073 0.867 -0.352 -0.354 143 194 185 0 0
-2.7367 6.0776 3.0119 0.624 -0.337 -0.705 141 192 183 0 0
-2.7324 6.0986 3.0160 0.140 -0.678 -0.722 142 193 184 0 0
-2.7191 6.1024 3.0171 0.249 -0.604 -0.757 140 191 182 0 0
-2.7059 6.1061 3.0181 0.200 -0.640 -0.742 141 192 183 0 0
-2.6931 6.1109 3.0194 0.600 -0.480 -0.640 143 194 185 0 0
-2.6809 6.1168 3.0208 0.423 -0.608 -0.672 143 194 185 0 0
-2.6680 6.1213 3.0220 0.865 -0.357 -0.353 141 192 184 0 0
-2.6710 6.2193 3.0403 0.882 -0.469 0.049 140 191 184 0 0
-2.6638 6.2359 3.0436 0.868 -0.495 -0.027 141 192 185 0 0
-2.6562 6.2519 3.0468 0.878 -0.446 -0.176 142 194 186 0 0
-2.6463 6.2634 3.0492 0.851 -0.456 0.261 138 191 183 0 0
-2.6409 6.2841 3.0532 0.875 -0.483 0.018 139 192 184 0 0
-2.6176 6.3654 3.0690 0.872 -0.410 0.269 139 192 184 0 0
-2.6084 6.3791 3.0719 0.501 -0.755 0.424 138 191 183 0 0
-2.5941 6.3819 3.0728 0.108 -0.870 0.481 137 192 183 0 0
-2.5530 6.3948 3.0763 0.731 -0.680 0.052 140 193 185 0 0
-2.5318 6.4169 3.0810 0.872 -0.398 -0.287 136 191 182 0 0
-2.5249 6.4364 3.0849 0.847 -0.405 -0.343 134 190 181 0 0
-2.5157 6.4506 3.0878 0.690 -0.710 0.138 135 191 182 0 0
-2.5113 6.4758 3.0926 0.941 -0.221 -0.257 135 191 182 0 0
-2.5047 6.4965 3.0967 0.965 -0.221 -0.142 134 190 181 0 0
-2.4996 6.5206 3.1013 0.988 -0.153 -0.031 135 191 182 0 0
-2.4809 6.5865 3.1142 0.857 -0.513 0.045 133 189 180 0 0
-2.4735 6.6064 3.1181 0.728 -0.686 0.022 134 190 181 0 0
-2.4659 6.6259 3.1219 0.482 -0.743 0.464 134 190 181 0 0
-2.4566 6.6417 3.1252 0.356 -0.686 0.635 131 187 178 0 0
-2.4423 6.6460 3.1264 0.705 -0.580 0.408 130 186 177 0 0
-2.4369 6.6711 3.1312 0.735 -0.509 0.447 132 188 179 0 0
-2.4279 6.6880 3.1346 0.903 -0.367 0.222 131 187 178 0 0
-2.4218 6.7118 3.1392 0.906 -0.351 0.237 132 188 179 0 0
-2.4176 6.7406 3.1447 0.906 -0.334 0.260 131 187 178 0 0
-2.4112 6.7645 3.1494 0.928 -0.363 -0.084 130 186 177 0 0
-2.4011 6.7794 3.1524 0.974 -0.221 -0.048 133 186 178 0 0
-2.3688 6.8612 3.1686 0.785 -0.601 0.150 127 183 174 0 0
-2.3581 6.8759 3.1717 0.785 -0.601 0.150 126 181 174 0 0
-2.3534 6.9055 3.1773 0.020 -0.730 0.683 125 180 174 0 0
-2.3538 6.9480 3.1853 -0.390 -0.695 0.604 124 179 173 0 0
-2.3313 6.9336 3.1832 -0.390 -0.695 0.604 126 182 173 0 0
-2.3171 6.9399 3.1848 0.890 -0.425 0.166 124 180 171 0 0
-2.3100 6.9643 3.1895 0.948 -0.309 0.078 128 184 175 0 0
-2.3001 6.9819 3.1931 0.939 -0.296 -0.174 122 178 169 0 0
-2.2927 7.0062 3.1978 0.691 -0.695 -0.196 121 177 168 0 0
-2.2794 7.0152 3.1999 0.779 -0.598 -0.188 119 175 166 0 0
-2.2656 7.0673 3.2100 0.871 -0.458 -0.175 117 173 164 0 0
-2.2413 7.0929 3.2155 -0.740 -0.625 -0.249 100 157 150 0 0
-2.2081 7.0494 3.2083 -0.819 -0.540 -0.191 66 105 94 0 0
-2.1133 6.9742 3.1968 0.351 -0.918 -0.184 59 84 71 0 0
-2.0031 6.8973 3.1854 0.417 -0.901 -0.121 42 44 39 0 0
-0.9091 5.8679 3.0229 -0.050 -0.366 0.929 39 40 35 0 0
-0.8865 5.8280 3.0160 0.162 -0.263 0.951 38 40 34 0 0
-0.8776 5.8483 3.0200 0.227 -0.266 0.937 42 44 38 0 0
-0.8622 5.8398 3.0189 0.155 -0.254 0.955 46 48 42 0 0
-0.8250 5.7931 3.0112 -0.319 -0.430 0.845 64 66 59 0 0
-0.7902 5.8179 3.0168 0.452 -0.217 0.865 87 89 82 0 0
-0.7517 6.2420 3.0972 0.446 -0.876 0.185 100 103 96 0 0
-0.6957 6.1711 3.0854 -0.696 -0.489 -0.526 104 105 97 0 0
-0.6719 6.1182 3.0762 -0.759 -0.394 -0.518 108 109 101 0 0
-0.5329 5.8709 3.0337 0.506 -0.758 0.411 123 126 119 0 0
-0.5167 5.8539 3.0310 -0.234 -0.897 0.374 122 124 118 0 0
-0.5028 5.8501 3.0307 -0.234 -0.897 0.374 122 123 117 0 0
-0.4872 5.8359 3.0284 -0.483 -0.710 0.513 125 126 120 0 0
-0.4743 5.8375 3.0291 -0.787 -0.577 0.220 126 127 121 0 0
-0.4292 5.8021 3.0237 -0.544 -0.469 0.696 133 134 126 0 0
-0.3765 5.7108 3.0081 -0.864 -0.473 0.176 137 137 129 0 0
-0.3574 5.6682 3.0006 -0.876 -0.467 -0.119 137 137 129 0 0
-0.3295 5.6515 2.9983 -0.712 -0.653 0.256 142 142 134 0 0
-0.1313 5.5799 2.9903 -0.584 -0.786 0.201 152 152 142 0 0
-0.0907 5.5479 2.9854 -0.471 -0.861 0.192 156 156 146 0 0
-0.0784 5.5495 2.9861 -0.615 -0.786 -0.070 152 152 142 0 0
0.0395 5.4642 2.9734 -0.340 -0.892 -0.296 156 153 144 0 0
0.0523 5.4544 2.9719 -0.534 -0.816 -0.223 156 153 144 0 0
0.0652 5.4436 2.9702 0.309 -0.900 -0.307 155 152 143 0 0
0.0776 5.4402 2.9699 -0.374 -0.927 0.042 155 152 143 0 0
0.1150 5.4212 2.9674 -0.381 -0.567 0.730 158 155 146 0 0
0.1268 5.4247 2.9684 0.187 -0.790 0.583 160 157 148 0 0
0.1671 5.3475 2.9550 0.496 -0.637 -0.590 158 155 146 0 0
0.1789 5.3474 2.9553 0.332 -0.893 -0.304 155 155 145 0 0
0.1905 5.3520 2.9565 0.271 -0.961 -0.049 156 156 146 0 0
0.2224 5.4283 2.9717 0.943 -0.320 -0.093 162 159 150 0 0
0.2369 5.3718 2.9615 0.483 -0.408 0.775 161 158 149 0 0
0.3048 5.1013 2.9127 0.982 -0.029 -0.189 157 155 145 0 0
0.3124 5.2178 2.9347 0.982 -0.029 -0.189 161 158 149 0 0
0.4262 5.2678 2.9472 0.996 -0.085 -0.009 161 158 149 0 0
1.2539 4.6911 2.8620 0.410 -0.849 -0.335 137 135 122 0 0
1.2937 4.6952 2.8639 -0.401 -0.851 -0.339 73 68 56 0 0
1.3068 4.7147 2.8679 0.445 -0.871 -0.207 65 62 52 0 0
1.3173 4.7185 2.8689 0.383 -0.910 -0.162 57 56 44 0 0
1.3256 4.7099 2.8675 -0.369 -0.778 -0.508 55 53 41 0 0
1.3356 4.7111 2.8680 -0.125 -0.967 -0.223 58 56 44 0 0
1.3433 4.6997 2.8661 0.315 -0.932 -0.181 60 58 46 0 0
1.3540 4.7049 2.8674 -0.663 -0.744 -0.086 82 80 68 0 0
1.6347 5.1914 2.9661 -0.760 -0.617 -0.203 29 30 24 0 0
1.6505 5.1666 2.9619 0.056 -0.947 -0.317 25 26 20 0 0
1.6607 5.1651 2.9619 -0.032 -0.952 -0.304 25 26 20 0 0
1.6735 5.1748 2.9641 -0.406 -0.865 -0.295 32 33 27 0 0
1.6785 4.8460 2.9027 0.880 -0.425 -0.213 37 41 51 0 0
1.7745 4.9914 2.9325 0.785 -0.618 -0.041 27 27 29 0 0
1.8165 4.8468 2.9066 0.236 -0.954 -0.186 87 81 68 0 0
1.8386 4.8203 2.9023 -0.629 -0.737 -0.246 238 144 120 0 0
1.8464 4.8134 2.9012 -0.516 -0.816 -0.261 243 189 161 0 0
1.8715 4.7993 2.8992 -0.465 -0.867 -0.177 103 88 76 0 0
1.8803 4.7964 2.8989 -0.142 -0.977 -0.161 101 94 78 0 0
1.8894 4.7944 2.8988 0.020 -0.990 -0.137 98 93 79 0 0
1.9124 4.6464 2.8718 -0.906 -0.379 -0.189 202 202 195 0 0
1.9190 4.6375 2.8703 -0.897 -0.349 -0.271 237 232 221 0 0
1.9245 4.6252 2.8681 -0.864 -0.455 -0.214 239 232 220 0 0
1.9382 4.6095 2.8656 0.128 -0.980 -0.152 208 207 200 0 0
2.2046 4.4437 2.8418 -0.670 -0.720 -0.180 86 121 143 0 0
2.2074 4.4282 2.8390 -0.952 -0.261 -0.157 78 116 139 0 0
2.2910 4.3774 2.8318 -0.227 -0.946 -0.230 58 68 66 0 0
2.2994 4.3773 2.8320 -0.070 -0.981 -0.183 53 66 74 0 0
2.3133 4.3904 2.8348 0.286 -0.947 -0.143 70 109 130 0 0
2.4569 4.4464 2.8493 -0.922 -0.364 -0.129 73 34 75 0 0
-3.4582 4.5522 2.6955 -0.105 -0.932 -0.348 178 207 201 0 0
-3.4445 4.5507 2.6956 -0.105 -0.932 -0.348 175 210 201 0 0
-3.4543 4.6223 2.7086 -0.481 -0.870 0.110 168 206 195 0 0
-3.1533 5.1727 2.8187 0.660 -0.516 -0.546 153 200 191 0 0
-3.1434 5.2178 2.8274 0.836 -0.526 -0.157 155 202 192 0 0
-3.1171 5.2191 2.8283 0.019 -0.932 0.361 151 200 191 0 0
-2.9350 5.5666 2.8976 0.978 -0.135 0.157 148 198 189 0 0
-2.9328 5.5867 2.9014 0.965 -0.138 0.225 149 199 190 0 0
-2.9274 5.6257 2.9088 0.909 -0.239 0.341 147 197 188 0 0
-2.9236 5.6679 2.9167 0.879 -0.302 0.370 147 197 188 0 0
-2.8874 5.7051 2.9246 0.084 -0.956 0.280 146 196 187 0 0
-2.8641 5.7402 2.9317 0.874 -0.473 -0.108 144 194 185 0 0
-2.8564 5.7521 2.9341 0.855 -0.370 -0.364 145 195 186 0 0
-2.8502 5.7669 2.9370 0.880 -0.323 -0.347 145 196 187 0 0
-2.8438 5.7814 2.9399 0.880 -0.323 -0.347 143 194 185 0 0
-2.8369 5.7952 2.9426 0.878 -0.269 -0.395 145 195 186 0 0
-2.8300 5.8091 2.9454 0.890 -0.188 -0.416 146 197 188 0 0
-2.8269 5.8299 2.9493 0.846 -0.102 -0.523 145 195 186 0 0
-2.8195 5.8430 2.9520 0.973 -0.146 -0.179 144 195 186 0 0
-2.8160 5.8635 2.9558 0.956 -0.267 -0.124 145 195 186 0 0
-2.8095 5.8786 2.9588 0.949 -0.259 -0.180 145 196 187 0 0
-2.8027 5.8931 2.9617 0.803 -0.571 -0.171 146 196 187 0 0
-2.7954 5.9070 2.9645 0.886 -0.436 -0.159 144 194 185 0 0
-2.7890 5.9227 2.9675 0.937 -0.179 0.301 144 194 185 0 0
-2.7814 5.9640 2.9754 0.735 -0.638 0.230 146 196 187 0 0
-2.7734 5.9770 2.9780 0.147 -0.985 0.092 144 194 185 0 0
-2.7613 5.9823 2.9793 0.593 -0.771 0.231 147 197 188 0 0
-2.7575 6.0321 2.9886 0.962 -0.259 -0.080 144 194 185 0 0
-2.7192 6.1042 3.0030 0.779 -0.502 -0.376 145 196 187 0 0
-2.7111 6.1179 3.0058 0.666 -0.558 -0.495 142 193 184 0 0
-2.7006 6.1272 3.0078 0.494 -0.584 -0.644 143 194 185 0 0
-2.6867 6.1299 3.0087 0.457 -0.608 -0.649 141 192 183 0 0
-2.6787 6.1443 3.0116 0.625 -0.466 -0.626 141 193 184 0 0
-2.6851 6.1875 3.0194 0.957 -0.243 -0.157 141 193 186 0 0
-2.6701 6.2192 3.0257 0.875 -0.470 -0.115 140 192 184 0 0
-2.6670 6.2441 3.0304 0.673 -0.632 -0.384 140 193 185 0 0
-2.6550 6.2512 3.0320 0.917 -0.360 -0.170 137 190 182 0 0
-2.6452 6.2627 3.0344 0.862 -0.431 0.265 139 192 184 0 0
-2.6389 6.2817 3.0381 0.906 -0.348 0.239 139 192 184 0 0
-2.6058 6.3753 3.0563 0.450 -0.765 0.461 138 191 183 0 0
-2.5920 6.3792 3.0574 0.217 -0.822 0.527 137 192 183 0 0
-2.5780 6.3829 3.0585 -0.170 -0.925 0.339 136 192 183 0 0
-2.5299 6.4145 3.0657 0.956 -0.264 -0.130 136 191 182 0 0
-2.5243 6.4368 3.0700 0.884 -0.403 -0.236 136 192 183 0 0
-2.5158 6.4527 3.0731 0.873 -0.426 -0.236 135 191 182 0 0
-2.5130 6.4816 3.0785 0.929 -0.253 -0.269 133 189 180 0 0
-2.5058 6.5008 3.0823 0.910 -0.209 -0.359 135 191 182 0 0
-2.5066 6.5380 3.0892 0.894 -0.253 -0.370 134 190 181 0 0
-2.4938 6.5453 3.0909 0.958 -0.274 -0.080 134 190 181 0 0
-2.4897 6.5720 3.0959 0.970 -0.190 -0.153 134 190 181 0 0
-2.4828 6.5928 3.1000 0.934 -0.190 -0.301 134 189 180 0 0
-2.4773 6.6169 3.1046 0.932 -0.194 -0.305 133 187 179 0 0
-2.4619 6.6186 3.1053 0.705 -0.695 0.140 135 189 181 0 0
-2.4396 6.6794 3.1172 0.931 -0.350 -0.101 132 188 179 0 0
-2.4311 6.6976 3.1208 0.983 -0.168 0.076 134 190 181 0 0
-2.4207 6.7113 3.1236 0.905 -0.396 0.157 133 189 180 0 0
-2.4083 6.7595 3.1329 0.851 -0.455 0.263 130 186 177 0 0
-2.3513 6.9023 3.1608 0.611 -0.792 -0.007 126 182 174 0 0
-2.3385 6.9121 3.1630 -0.290 -0.852 0.436 125 181 173 0 0
-2.3289 6.9297 3.1665 0.401 -0.847 -0.349 124 180 171 0 0
-2.3149 6.9365 3.1682 0.733 -0.680 -0.028 123 179 170 0 0
-2.3103 6.9672 3.1740 0.931 -0.357 -0.077 122 178 169 0 0
-2.3012 6.9870 3.1779 0.948 -0.295 -0.122 120 176 167 0 0
-2.2899 7.0010 3.1808 0.750 -0.373 -0.546 123 179 170 0 0
-2.2816 7.0232 3.1851 0.771 -0.302 -0.561 121 177 168 0 0
-2.2455 7.1064 3.2015 -0.819 -0.539 -0.194 103 161 153 0 0
-2.2076 7.0505 3.1922 -0.839 -0.517 -0.168 67 107 96 0 0
-2.1140 6.9785 3.1815 0.449 -0.848 -0.282 59 84 71 0 0
-2.0025 6.8980 3.1697 0.220 -0.955 -0.198 44 46 39 0 0
-0.7690 6.1885 3.0727 0.819 -0.533 -0.211 88 90 84 0 0
-0.7579 6.2043 3.0760 0.819 -0.533 -0.211 97 99 93 0 0
-0.7467 6.2201 3.0792 0.819 -0.533 -0.211 101 103 96 0 0
-0.6744 6.1356 3.0656 -0.737 -0.401 -0.544 107 109 101 0 0
-0.4844 5.8228 3.0130 -0.455 -0.727 0.515 114 112 107 0 0
-0.4703 5.8173 3.0124 -0.689 -0.549 0.473 126 126 119 0 0
-0.4575 5.8195 3.0131 -0.397 -0.450 0.800 134 135 128 0 0
-0.4411 5.7989 3.0098 -0.232 -0.516 0.825 136 136 129 0 0
-0.4233 5.7682 3.0046 -0.374 -0.427 0.823 134 135 127 0 0
-0.3913 5.7285 2.9981 -0.864 -0.490 0.115 133 134 126 0 0
-0.3744 5.7013 2.9936 -0.832 -0.506 0.226 134 135 127 0 0
-0.3568 5.6682 2.9879 -0.849 -0.471 -0.237 134 135 127 0 0
-0.3417 5.6525 2.9854 -0.889 -0.418 -0.188 136 137 128 0 0
-0.3281 5.6465 2.9847 -0.742 -0.595 0.307 139 140 130 0 0
-0.1397 5.3271 2.9309 -0.791 -0.545 -0.277 152 152 142 0 0
-0.1263 5.3142 2.9289 -0.807 -0.562 -0.184 152 152 142 0 0
-0.1138 5.3090 2.9282 -0.749 -0.635 0.190 152 152 142 0 0
-0.0918 5.4432 2.9537 0.062 -0.388 0.920 153 153 143 0 0
-0.0803 5.4501 2.9553 0.050 -0.404 0.913 153 153 143 0 0
0.0128 5.5012 2.9673 -0.262 -0.935 0.239 156 155 145 0 0
0.0258 5.4910 2.9658 -0.731 -0.681 -0.042 157 154 145 0 0
0.0402 5.4635 2.9611 -0.432 -0.851 0.298 156 153 144 0 0
0.0531 5.4530 2.9595 -0.544 -0.816 0.197 156 153 143 0 0
0.1157 5.4206 2.9552 -0.519 -0.831 0.200 155 154 143 0 0
0.1281 5.4143 2.9544 -0.471 -0.845 0.254 155 154 143 0 0
0.1672 5.3568 2.9449 -0.122 -0.621 -0.774 157 155 145 0 0
0.1794 5.3498 2.9439 0.152 -0.769 -0.620 158 156 146 0 0
0.1908 5.3591 2.9460 0.168 -0.799 -0.577 159 157 148 0 0
0.2018 5.3743 2.9491 0.746 -0.438 -0.501 160 158 149 0 0
0.2387 5.3429 2.9443 0.327 -0.442 0.836 160 158 149 0 0
0.2502 5.3499 2.9459 0.602 -0.350 0.718 160 158 149 0 0
0.2910 5.1914 2.9177 0.897 -0.056 -0.438 161 159 150 0 0
0.3044 5.1297 2.9067 0.982 -0.029 -0.189 162 160 151 0 0
0.3942 5.1427 2.9116 0.987 -0.084 -0.134 162 160 149 0 0
0.4498 5.2727 2.9372 0.963 -0.031 -0.268 161 159 147 0 0
1.6651 7.7323 3.4257 -0.803 -0.324 0.500 146 144 130 0 0
1.2551 4.6954 2.8527 0.410 -0.849 -0.335 141 137 125 0 0
1.2947 4.6982 2.8544 -0.422 -0.834 -0.356 72 67 56 0 0
1.3078 4.7175 2.8583 0.445 -0.871 -0.207 65 62 51 0 0
1.3183 4.7214 2.8593 0.306 -0.950 0.064 57 55 44 0 0
1.3270 4.7154 2.8584 -0.383 -0.772 -0.508 55 53 41 0 0
1.3442 4.7018 2.8564 0.315 -0.932 -0.181 60 58 46 0 0
1.3545 4.7051 2.8573 -0.503 -0.850 -0.154 86 84 72 0 0
1.3889 4.6803 2.8536 -0.061 -0.907 0.417 36 35 30 0 0
1.6360 5.1948 2.9557 -0.788 -0.591 -0.173 30 31 25 0 0
1.6434 5.1800 2.9531 -0.644 -0.697 -0.315 29 30 24 0 0
1.6519 5.1704 2.9516 0.067 -0.921 -0.385 23 24 18 0 0
1.6636 5.1757 2.9529 0.003 -0.997 0.078 27 28 22 0 0
1.6734 5.1720 2.9525 -0.174 -0.976 -0.131 33 34 28 0 0
1.7229 5.2490 2.9681 0.127 -0.678 -0.724 49 49 44 0 0
1.6618 4.8153 2.8862 0.857 -0.474 -0.201 32 37 46 0 0
1.7595 4.9701 2.9175 0.807 -0.591 0.007 30 30 33 0 0
1.7800 5.0109 2.9256 0.853 -0.523 0.002 24 25 28 0 0
1.8178 4.8497 2.8969 0.227 -0.947 -0.228 87 81 68 0 0
1.8397 4.8225 2.8924 -0.652 -0.705 -0.280 244 147 121 0 0
1.8473 4.8148 2.8912 -0.524 -0.806 -0.276 237 164 136 0 0
1.8725 4.8011 2.8894 -0.496 -0.846 -0.196 105 90 76 0 0
1.8813 4.7979 2.8891 -0.142 -0.977 -0.161 99 92 77 0 0
1.8903 4.7957 2.8889 -0.008 -0.982 -0.191 97 92 78 0 0
1.9140 4.6502 2.8626 -0.914 -0.304 -0.269 181 181 173 0 0
1.9205 4.6408 2.8611 -0.890 -0.344 -0.301 237 232 221 0 0
1.9259 4.6282 2.8589 -0.880 -0.423 -0.217 237 230 219 0 0
1.9392 4.6111 2.8561 0.128 -0.980 -0.152 163 160 154 0 0
2.1636 4.4738 2.8369 0.330 -0.938 -0.110 58 156 202 0 0
2.2060 4.4462 2.8330 -0.595 -0.779 -0.199 83 118 142 0 0
2.2084 4.4297 2.8300 -0.957 -0.259 -0.133 78 116 139 0 0
2.2922 4.3793 2.8230 -0.227 -0.946 -0.230 58 65 60 0 0
2.3035 4.3860 2.8246 0.266 -0.955 -0.133 60 70 76 0 0
2.3143 4.3917 2.8260 0.342 -0.934 -0.104 72 110 131 0 0
-3.4612 4.5565 2.6850 -0.105 -0.932 -0.348 183 209 203 0 0
-3.4432 4.5499 2.6843 -0.273 -0.898 -0.346 175 210 200 0 0
-3.4367 4.5718 2.6885 0.363 -0.573 -0.735 170 206 196 0 0
-3.4188 4.6104 2.6960 0.699 -0.684 -0.210 168 206 195 0 0
-3.1435 5.1990 2.8113 0.382 -0.600 -0.703 153 200 191 0 0
-3.1459 5.2225 2.8156 0.808 -0.523 -0.271 153 200 190 0 0
-3.1155 5.2177 2.8155 -0.171 -0.981 -0.087 154 201 193 0 0
-2.9637 5.4755 2.8669 0.055 -0.376 -0.925 150 200 191 0 0
-2.9822 5.5288 2.8761 -0.116 -0.989 0.090 149 199 190 0 0
-2.9681 5.5287 2.8765 0.075 -0.979 0.188 150 200 191 0 0
-2.9710 5.5569 2.8816 -0.120 -0.892 0.436 149 199 190 0 0
-2.9257 5.5760 2.8863 0.981 -0.111 0.157 148 198 189 0 0
-2.9239 5.5969 2.8902 0.981 -0.111 0.157 149 199 190 0 0
-2.8665 5.7457 2.9190 0.931 -0.287 -0.227 148 198 189 0 0
-2.8615 5.7626 2.9223 0.684 -0.360 -0.634 148 198 189 0 0
-2.8547 5.7763 2.9250 0.626 -0.363 -0.690 146 197 188 0 0
-2.8452 5.7854 2.9269 0.634 -0.366 -0.682 145 196 187 0 0
-2.8401 5.8023 2.9301 0.841 -0.342 -0.420 144 195 186 0 0
-2.8347 5.8188 2.9333 0.845 -0.189 -0.501 146 197 188 0 0
-2.8338 5.8437 2.9379 0.895 -0.135 -0.426 144 195 186 0 0
-2.8211 5.8473 2.9389 0.911 -0.102 -0.400 145 196 187 0 0
-2.8188 5.8699 2.9431 0.790 -0.260 -0.555 144 194 185 0 0
-2.8131 5.8865 2.9463 0.783 -0.319 -0.534 147 197 188 0 0
-2.8057 5.9002 2.9490 0.792 -0.285 -0.540 145 195 186 0 0
-2.7999 5.9168 2.9522 0.878 -0.290 -0.381 145 195 186 0 0
-2.7697 5.9997 2.9682 0.973 -0.193 0.129 143 193 184 0 0
-2.7614 6.0411 2.9760 0.986 -0.143 0.090 143 194 185 0 0
-2.7216 6.1104 2.9897 0.779 -0.502 -0.376 141 192 183 0 0
-2.7102 6.1178 2.9914 0.635 -0.618 -0.464 141 192 183 0 0
-2.6894 6.1368 2.9955 0.595 -0.572 -0.565 142 193 184 0 0
-2.6849 6.1582 2.9995 0.638 -0.486 -0.597 139 191 182 0 0
-2.6883 6.1956 3.0063 0.918 -0.309 -0.247 137 190 182 0 0
-2.6764 6.2026 3.0079 0.814 -0.575 0.086 137 190 182 0 0
-2.6642 6.2089 3.0094 0.903 -0.419 0.094 136 189 181 0 0
-2.6611 6.2338 3.0140 0.900 -0.383 -0.210 136 189 181 0 0
-2.6485 6.2395 3.0154 0.874 -0.484 -0.036 141 194 186 0 0
-2.6410 6.2558 3.0186 0.851 -0.456 0.261 141 194 186 0 0
-2.6343 6.2738 3.0221 0.927 -0.299 0.225 138 191 183 0 0
-2.6308 6.2987 3.0267 0.947 -0.307 0.095 139 192 184 0 0
-2.6177 6.3361 3.0339 0.851 -0.474 0.227 139 192 184 0 0
-2.6016 6.3681 3.0402 0.450 -0.765 0.461 139 192 184 0 0
-2.5766 6.3816 3.0434 0.097 -0.918 0.384 135 191 182 0 0
-2.5308 6.4183 3.0514 0.956 -0.264 -0.130 137 193 184 0 0
-2.5245 6.4390 3.0553 0.932 -0.299 -0.202 134 190 181 0 0
-2.5212 6.4664 3.0604 0.911 -0.217 -0.352 133 189 180 0 0
-2.5106 6.4780 3.0629 0.906 -0.176 -0.384 134 190 181 0 0
-2.5091 6.5099 3.0687 0.910 -0.209 -0.359 134 190 181 0 0
-2.5017 6.5289 3.0724 0.902 -0.228 -0.366 134 190 181 0 0
-2.4949 6.5495 3.0764 0.902 -0.228 -0.366 136 192 183 0 0
-2.4916 6.5783 3.0817 0.934 -0.190 -0.301 131 187 178 0 0
-2.4790 6.6229 3.0902 0.948 -0.174 -0.267 136 189 181 0 0
-2.4596 6.6152 3.0894 0.592 -0.786 0.180 133 186 178 0 0
-2.4540 6.6395 3.0940 0.732 -0.632 0.254 133 186 178 0 0
-2.4331 6.6662 3.0994 0.834 -0.520 0.184 132 188 179 0 0
-2.4296 6.6961 3.1050 0.987 -0.154 0.041 131 187 178 0 0
-2.4150 6.6999 3.1061 0.904 -0.324 0.277 131 187 178 0 0
-2.3694 6.8670 3.1379 0.818 -0.389 0.424 128 184 175 0 0
-2.3560 6.8749 3.1397 0.853 -0.520 0.051 126 182 173 0 0
-2.3489 6.8985 3.1443 0.346 -0.866 -0.362 124 180 171 0 0
-2.3391 6.9156 3.1477 0.539 -0.839 -0.066 124 180 171 0 0
-2.3302 6.9352 3.1515 0.401 -0.847 -0.349 125 181 172 0 0
-2.3133 6.9348 3.1519 0.820 -0.546 0.173 122 178 169 0 0
-2.3093 6.9672 3.1579 0.919 -0.307 0.249 123 179 170 0 0
-2.3024 6.9922 3.1627 0.896 -0.316 0.311 123 179 170 0 0
-2.2903 7.0043 3.1652 0.797 -0.431 -0.424 121 177 168 0 0
-2.2501 7.1209 3.1877 -0.839 -0.517 -0.168 103 162 152 0 0
-2.2099 7.0590 3.1775 -0.839 -0.517 -0.168 71 111 101 0 0
-2.1148 6.9831 3.1663 0.449 -0.848 -0.282 59 84 71 0 0
-2.0027 6.9011 3.1544 0.220 -0.955 -0.198 45 46 39 0 0
-0.7581 6.2092 3.0628 0.819 -0.533 -0.211 37 38 32 0 0
-0.6819 6.1803 3.0597 -0.794 -0.582 -0.179 76 79 71 0 0
-0.3687 5.6671 2.9747 -0.186 -0.362 0.913 111 110 102 0 0
-0.3558 5.6664 2.9749 -0.686 -0.522 0.507 118 118 109 0 0
-0.3397 5.6431 2.9711 -0.811 -0.502 0.300 131 132 121 0 0
-0.3275 5.6469 2.9721 -0.429 -0.480 0.765 141 141 131 0 0
-0.1889 5.3435 2.9206 -0.697 -0.185 -0.693 144 144 134 0 0
-0.0863 5.2798 2.9118 -0.614 -0.784 -0.094 152 152 142 0 0
-0.0785 5.3194 2.9193 0.264 -0.700 0.664 153 153 143 0 0
-0.0379 5.2671 2.9108 -0.627 -0.396 0.671 155 155 145 0 0
0.0792 5.4359 2.9450 -0.105 -0.927 0.361 156 154 142 0 0
0.0907 5.4428 2.9466 -0.452 -0.892 0.010 156 154 142 0 0
0.1160 5.4254 2.9441 -0.563 -0.825 -0.044 155 155 143 0 0
0.1285 5.4169 2.9429 -0.563 -0.825 -0.044 156 156 144 0 0
0.1548 5.3774 2.9364 -0.773 -0.622 -0.128 157 157 145 0 0
0.1679 5.3553 2.9327 0.386 -0.900 -0.202 156 156 144 0 0
0.1795 5.3592 2.9338 0.299 -0.786 -0.541 157 155 145 0 0
0.1910 5.3670 2.9355 0.275 -0.872 -0.405 160 157 148 0 0
0.2025 5.3733 2.9370 0.396 -0.918 -0.017 160 158 149 0 0
1.6641 7.7197 3.4068 -0.789 -0.313 0.529 145 143 128 0 0
1.2563 4.6997 2.8434 0.410 -0.849 -0.335 140 135 123 0 0
1.2966 4.7064 2.8458 -0.087 -0.945 -0.314 73 67 57 0 0
1.3088 4.7203 2.8486 0.445 -0.871 -0.207 59 56 45 0 0
1.3203 4.7302 2.8508 0.463 -0.872 0.160 56 55 43 0 0
1.3451 4.7040 2.8467 0.315 -0.932 -0.181 62 60 48 0 0
1.3730 4.6966 2.8461 -0.405 -0.876 -0.262 28 27 22 0 0
1.3820 4.6926 2.8456 -0.405 -0.876 -0.262 41 40 35 0 0
1.3914 4.6910 2.8456 -0.251 -0.967 0.042 35 34 29 0 0
1.6376 5.1996 2.9455 -0.850 -0.509 -0.136 31 32 26 0 0
1.6452 5.1855 2.9431 -0.694 -0.617 -0.371 27 28 22 0 0
1.6536 5.1757 2.9415 0.014 -0.916 -0.402 23 24 18 0 0
1.7147 5.2573 2.9582 0.064 -0.625 -0.778 56 57 49 0 0
1.7257 5.2584 2.9587 0.115 -0.632 -0.766 43 40 37 0 0
1.6642 4.8232 2.8774 0.865 -0.477 -0.152 29 37 42 0 0
1.6824 4.8580 2.8843 0.866 -0.483 -0.130 90 102 112 0 0
1.7610 4.9737 2.9076 0.817 -0.575 -0.045 26 27 31 0 0
1.8190 4.8523 2.8871 0.227 -0.947 -0.228 87 82 69 0 0
1.8416 4.8274 2.8832 -0.738 -0.634 -0.231 244 141 119 0 0
1.8485 4.8173 2.8815 -0.593 -0.756 -0.276 230 165 138 0 0
1.8738 4.8037 2.8797 -0.387 -0.898 -0.209 107 92 77 0 0
1.8825 4.8002 2.8793 -0.174 -0.964 -0.199 99 91 77 0 0
1.8914 4.7976 2.8791 -0.008 -0.982 -0.191 96 92 77 0 0
1.9009 4.7970 2.8793 -0.181 -0.955 -0.235 74 72 58 0 0
1.9158 4.6546 2.8537 -0.895 -0.290 -0.339 160 160 153 0 0
1.9221 4.6445 2.8520 -0.890 -0.344 -0.301 238 233 222 0 0
1.9274 4.6312 2.8497 -0.855 -0.439 -0.277 237 232 220 0 0
1.9338 4.6218 2.8482 -0.698 -0.612 -0.371 191 187 176 0 0
1.9671 4.6102 2.8470 -0.070 -0.996 -0.059 229 225 219 0 0
1.9738 4.5732 2.8404 -0.935 -0.352 0.053 66 127 165 0 0
1.9787 4.5602 2.8382 -0.940 -0.308 0.149 72 161 200 0 0
1.9842 4.5489 2.8362 -0.925 -0.378 -0.023 106 186 219 0 0
1.9910 4.5420 2.8352 0.585 -0.806 -0.088 51 138 179 0 0
2.1646 4.4752 2.8278 0.330 -0.938 -0.110 59 156 201 0 0
2.2070 4.4477 2.8240 -0.595 -0.779 -0.199 82 117 141 0 0
2.2095 4.4313 2.8211 -0.952 -0.261 -0.157 79 117 140 0 0
2.3046 4.3876 2.8158 0.256 -0.963 -0.085 66 73 78 0 0
2.3161 4.3950 2.8174 0.344 -0.939 -0.009 72 111 135 0 0
2.4651 4.4436 2.8305 -0.896 -0.439 -0.065 40 19 48 0 0
-3.4653 4.5622 2.6747 0.079 -0.928 -0.363 194 217 211 0 0
-3.4504 4.5592 2.6745 -0.105 -0.932 -0.348 176 210 201 0 0
-3.4416 4.5785 2.6783 0.406 -0.687 -0.602 171 207 197 0 0
-3.4481 4.6013 2.6822 0.687 -0.692 0.221 170 207 196 0 0
-3.4504 4.6192 2.6854 -0.216 -0.810 -0.545 170 208 197 0 0
-3.4396 4.6213 2.6860 -0.251 -0.769 -0.588 169 207 196 0 0
-3.4264 4.6205 2.6863 0.111 -0.559 -0.821 168 206 195 0 0
-2.9731 5.4691 2.8524 0.438 -0.349 -0.829 151 201 192 0 0
-2.9663 5.5270 2.8631 -0.120 -0.992 0.025 149 199 190 0 0
-2.9278 5.5808 2.8739 0.974 -0.129 0.187 149 199 190 0 0
-2.9331 5.6869 2.8929 0.504 -0.825 0.255 148 198 189 0 0
-2.9232 5.6946 2.8946 0.598 -0.758 0.261 146 196 187 0 0
-2.9034 5.7103 2.8979 0.493 -0.869 0.032 148 198 189 0 0
-2.8859 5.7302 2.9021 0.784 -0.612 0.108 148 198 189 0 0
-2.8692 5.7518 2.9064 0.886 -0.329 -0.326 147 197 188 0 0
-2.8628 5.7663 2.9092 0.886 -0.329 -0.326 144 194 185 0 0
-2.8590 5.7852 2.9127 0.812 -0.309 -0.495 145 196 187 0 0
-2.8504 5.7960 2.9149 0.728 -0.398 -0.558 144 195 186 0 0
-2.8428 5.8086 2.9174 0.767 -0.332 -0.548 144 195 186 0 0
-2.8365 5.8236 2.9203 0.801 -0.320 -0.506 145 196 187 0 0
-2.8382 5.8531 2.9256 0.895 -0.135 -0.426 144 195 186 0 0
-2.8254 5.8566 2.9266 0.911 -0.102 -0.400 145 196 187 0 0
-2.8166 5.8945 2.9337 0.940 -0.281 -0.195 146 196 187 0 0
-2.8061 5.9022 2.9354 0.937 -0.305 -0.170 144 194 185 0 0
-2.8001 5.9186 2.9385 0.937 -0.305 -0.170 144 194 185 0 0
-2.7933 5.9335 2.9414 0.891 -0.370 -0.262 144 194 185 0 0
-2.7845 5.9448 2.9437 0.837 -0.539 0.094 145 195 186 0 0
-2.7773 5.9591 2.9465 0.864 -0.496 0.081 150 200 191 0 0
-2.7667 5.9955 2.9533 0.964 -0.125 -0.233 147 197 188 0 0
-2.7331 6.1048 2.9740 0.205 -0.932 0.298 141 192 183 0 0
-2.7243 6.1173 2.9765 0.840 -0.519 0.159 142 193 184 0 0
-2.7123 6.1235 2.9780 0.764 -0.561 -0.319 140 191 182 0 0
-2.6922 6.1139 2.9768 0.956 -0.167 -0.240 141 192 183 0 0
-2.6931 6.1457 2.9826 0.595 -0.572 -0.565 142 193 184 0 0
-2.6979 6.1857 2.9896 0.759 -0.503 -0.413 139 191 182 0 0
-2.6691 6.2516 3.0024 0.585 -0.800 -0.133 140 193 185 0 0
-2.6460 6.2361 3.0002 0.820 -0.563 0.106 137 190 182 0 0
-2.6385 6.2524 3.0034 0.854 -0.515 0.070 136 189 181 0 0
-2.6318 6.2703 3.0068 0.927 -0.299 0.225 136 189 181 0 0
-2.6153 6.3330 3.0186 0.817 -0.482 0.316 134 187 179 0 0
-2.6074 6.3490 3.0217 0.876 -0.448 0.179 137 190 182 0 0
-2.5996 6.3656 3.0249 0.876 -0.448 0.179 135 188 180 0 0
-2.5895 6.3775 3.0274 0.827 -0.561 -0.039 138 193 185 0 0
-2.5696 6.3685 3.0263 -0.023 -0.991 -0.133 135 191 182 0 0
-2.5351 6.4295 3.0383 0.957 -0.291 0.015 134 190 181 0 0
-2.5273 6.4470 3.0417 0.905 -0.366 -0.219 133 189 180 0 0
-2.5264 6.4798 3.0476 0.897 -0.233 -0.375 133 189 180 0 0
-2.5177 6.4957 3.0508 0.882 -0.243 -0.404 134 190 181 0 0
-2.5112 6.5165 3.0547 0.901 -0.234 -0.365 134 190 181 0 0
-2.5046 6.5373 3.0586 0.891 -0.193 -0.411 133 189 180 0 0
-2.4968 6.5557 3.0622 0.900 -0.178 -0.397 132 188 179 0 0
-2.4945 6.5867 3.0678 0.716 -0.698 -0.036 131 187 178 0 0
-2.4815 6.5936 3.0695 0.694 -0.713 0.100 138 191 183 0 0
-2.4703 6.6048 3.0718 0.715 -0.689 0.115 133 186 178 0 0
-2.4578 6.6130 3.0736 0.592 -0.786 0.180 135 188 180 0 0
-2.4472 6.6259 3.0763 0.806 -0.548 0.225 135 188 180 0 0
-2.4396 6.6456 3.0800 0.851 -0.453 0.265 133 186 178 0 0
-2.4358 6.6744 3.0854 0.959 -0.246 0.137 132 188 179 0 0
-2.4259 6.6892 3.0883 0.983 -0.178 0.043 132 188 179 0 0
-2.4110 6.7311 3.0963 0.858 -0.503 0.109 129 185 176 0 0
-2.4056 6.7570 3.1011 0.720 -0.604 0.343 129 185 176 0 0
-2.3857 6.7883 3.1073 0.638 -0.666 0.387 131 184 176 0 0
-2.3671 6.8635 3.1215 0.930 -0.365 -0.046 127 183 174 0 0
-2.3565 6.8784 3.1245 0.884 -0.450 -0.127 126 182 173 0 0
-2.3517 6.9076 3.1299 0.725 -0.487 -0.487 124 180 171 0 0
-2.3392 6.9182 3.1321 0.837 -0.419 -0.351 127 183 174 0 0
-2.3315 6.9407 3.1364 0.688 -0.564 -0.456 124 180 171 0 0
-2.3209 6.9562 3.1395 0.883 -0.399 -0.246 124 180 171 0 0
-2.3030 6.9961 3.1472 0.911 -0.406 0.078 122 178 169 0 0
-2.2941 7.0165 3.1512 0.841 -0.474 0.261 123 179 170 0 0
-2.2889 7.0468 3.1568 0.985 -0.172 0.005 123 179 170 0 0
-2.2803 7.0684 3.1609 0.853 -0.322 -0.411 119 175 166 0 0
-2.2534 7.1320 3.1732 -0.849 -0.497 -0.182 103 162 152 0 0
-2.2105 7.0629 3.1619 -0.849 -0.497 -0.182 72 111 102 0 0
-2.1222 7.0057 3.1541 -0.017 -0.939 -0.344 60 85 72 0 0
-2.0042 6.9080 3.1398 0.277 -0.904 -0.324 45 47 39 0 0
-1.9931 6.9706 3.1514 0.755 -0.570 -0.323 44 45 39 0 0
-1.7572 7.5753 3.2673 -0.362 -0.386 -0.848 40 41 35 0 0
-1.7361 7.6881 3.2883 0.163 -0.360 0.918 41 41 35 0 0
-1.7293 7.7277 3.2956 -0.316 -0.488 0.814 41 41 36 0 0
-1.6725 7.7175 3.2954 0.166 -0.387 0.907 38 39 33 0 0
-1.6579 7.7300 3.2981 0.166 -0.387 0.907 40 41 35 0 0
-1.6539 7.7818 3.3075 0.339 -0.309 0.889 43 43 37 0 0
-1.4868 7.8353 3.3219 -0.780 -0.520 -0.347 43 44 38 0 0
-0.7583 6.2141 3.0497 0.819 -0.533 -0.211 42 43 37 0 0
-0.6808 6.1783 3.0455 -0.806 -0.565 -0.177 39 42 35 0 0
-0.4217 5.5996 2.9483 -0.100 -0.295 0.950 70 65 58 0 0
-0.1394 5.3363 2.9087 -0.796 -0.511 -0.325 151 151 141 0 0
-0.0856 5.2784 2.8998 -0.716 -0.556 0.422 151 151 141 0 0
0.1805 5.3525 2.9207 0.855 -0.474 0.211 159 157 147 0 0
1.3047 7.2318 3.2920 0.933 -0.360 0.012 169 165 153 0 0
1.6595 7.6842 3.3838 -0.721 -0.285 0.632 147 145 130 0 0
1.2575 4.7039 2.8340 0.410 -0.849 -0.335 141 136 124 0 0
1.2980 4.7118 2.8366 -0.003 -0.957 -0.291 72 66 56 0 0
1.3098 4.7231 2.8390 0.445 -0.871 -0.207 60 57 46 0 0
1.3212 4.7323 2.8410 0.560 -0.788 0.256 55 54 42 0 0
1.3321 4.7383 2.8424 -0.668 -0.606 -0.432 57 55 43 0 0
1.3740 4.6990 2.8365 -0.405 -0.876 -0.262 32 31 26 0 0
1.3835 4.6980 2.8365 -0.300 -0.909 -0.288 41 40 35 0 0
1.6239 5.1828 2.9309 0.105 -0.994 -0.036 29 30 24 0 0
1.6424 5.1703 2.9292 0.132 -0.957 -0.260 27 28 22 0 0
1.6555 5.1817 2.9316 0.187 -0.979 0.079 23 24 18 0 0
1.6669 5.1853 2.9326 0.016 -0.983 0.181 29 30 24 0 0
1.6677 4.8355 2.8694 0.866 -0.483 -0.130 34 36 42 0 0
1.6844 4.8640 2.8751 0.866 -0.483 -0.130 23 26 38 0 0
1.7016 4.8940 2.8810 0.862 -0.496 -0.102 53 51 57 0 0
1.7182 4.9209 2.8863 0.845 -0.526 -0.094 83 76 71 0 0
1.7345 4.9461 2.8913 0.845 -0.526 -0.094 41 35 31 0 0
1.7509 4.9717 2.8964 0.845 -0.526 -0.094 30 31 33 0 0
1.7624 4.9770 2.8977 0.824 -0.563 -0.067 25 26 30 0 0
1.7823 5.0156 2.9052 0.821 -0.553 -0.140 25 26 30 0 0
1.8202 4.8550 2.8773 0.227 -0.947 -0.228 87 82 68 0 0
1.8427 4.8297 2.8733 -0.738 -0.634 -0.231 236 141 115 0 0
1.8748 4.8056 2.8699 -0.387 -0.898 -0.209 103 87 73 0 0
1.8835 4.8021 2.8695 -0.174 -0.964 -0.199 100 92 78 0 0
1.8931 4.8020 2.8698 -0.021 -0.980 -0.199 96 91 77 0 0
1.9227 4.6447 2.8422 -0.877 -0.295 -0.379 239 233 223 0 0
1.9411 4.6141 2.8372 -0.193 -0.975 -0.111 233 229 218 0 0
1.9493 4.6107 2.8368 -0.235 -0.968 -0.082 234 227 217 0 0
1.9588 4.6116 2.8372 -0.030 -0.989 -0.141 237 230 220 0 0
1.9677 4.6105 2.8373 0.074 -0.997 -0.011 233 226 218 0 0
1.9750 4.6044 2.8364 0.322 -0.855 -0.407 99 102 107 0 0
1.9744 4.5739 2.8309 -0.943 -0.311 0.121 90 138 172 0 0
1.9789 4.5594 2.8284 -0.944 -0.310 0.115 72 162 201 0 0
1.9921 4.5438 2.8259 0.585 -0.806 -0.088 53 142 185 0 0
2.1670 4.4806 2.8195 0.171 -0.968 -0.182 59 156 201 0 0
2.2080 4.4492 2.8150 -0.595 -0.779 -0.199 82 118 142 0 0
2.3054 4.3887 2.8068 0.256 -0.963 -0.085 61 66 72 0 0
2.3183 4.3993 2.8091 0.469 -0.883 -0.014 70 109 135 0 0
2.4659 4.4444 2.8214 -0.911 -0.409 -0.058 35 13 43 0 0
3.6487 6.9514 3.3078 -0.567 -0.330 -0.755 240 168 13 0 0
-3.4680 4.5662 2.6640 0.079 -0.928 -0.363 202 224 220 0 0
-3.4533 4.5635 2.6640 -0.105 -0.932 -0.348 176 209 201 0 0
-3.4445 4.5678 2.6650 0.079 -0.928 -0.363 172 208 198 0 0
-3.4453 4.5837 2.6678 0.395 -0.728 -0.560 172 208 198 0 0
-3.4452 4.6289 2.6759 -0.078 -0.814 -0.575 167 206 195 0 0
-3.4335 4.6299 2.6764 0.148 -0.564 -0.813 166 206 195 0 0
-3.0447 5.3627 2.8183 0.789 -0.157 -0.594 153 200 192 0 0
-3.0461 5.3866 2.8225 0.811 -0.293 -0.506 155 202 194 0 0
-3.0404 5.3994 2.8250 0.828 -0.282 -0.484 153 200 192 0 0
-3.0354 5.4135 2.8276 0.860 -0.230 -0.456 152 201 193 0 0
-3.0123 5.5112 2.8457 0.178 -0.883 0.434 149 199 190 0 0
-2.9992 5.5128 2.8464 0.594 -0.677 0.435 148 198 189 0 0
-2.9902 5.5212 2.8481 0.477 -0.810 0.341 148 198 189 0 0
-2.9801 5.5277 2.8496 0.477 -0.810 0.341 147 197 188 0 0
-2.9348 5.5938 2.8627 0.904 -0.111 -0.414 148 198 189 0 0
-2.9311 5.6116 2.8660 0.899 -0.089 -0.428 148 198 189 0 0
-2.9251 5.6255 2.8686 0.965 -0.248 -0.084 149 199 190 0 0
-2.9307 5.6840 2.8789 0.504 -0.825 0.255 148 198 189 0 0
-2.9209 5.6919 2.8806 0.527 -0.849 0.035 148 198 189 0 0
-2.8843 5.7288 2.8882 0.801 -0.584 0.132 146 196 187 0 0
-2.8586 5.7858 2.8992 0.937 -0.229 -0.262 146 197 188 0 0
-2.8503 5.7971 2.9014 0.595 -0.471 -0.652 145 196 187 0 0
-2.8473 5.8180 2.9052 0.859 -0.281 -0.429 145 196 187 0 0
-2.8410 5.8330 2.9081 0.859 -0.281 -0.429 145 196 187 0 0
-2.8362 5.8509 2.9114 0.838 -0.411 -0.359 143 194 185 0 0
-2.8359 5.8771 2.9161 0.886 -0.262 -0.382 143 194 185 0 0
-2.8263 5.8864 2.9180 0.872 -0.271 -0.407 145 195 186 0 0
-2.8201 5.9022 2.9210 0.814 -0.387 -0.433 145 195 186 0 0
-2.8124 5.9153 2.9236 0.814 -0.387 -0.433 142 193 184 0 0
-2.8073 5.9333 2.9269 0.876 -0.344 -0.339 142 193 184 0 0
-2.7997 5.9468 2.9296 0.677 -0.678 -0.287 143 194 185 0 0
-2.7756 5.9576 2.9322 0.795 -0.607 0.003 144 195 186 0 0
-2.7664 5.9965 2.9394 0.974 -0.183 -0.138 143 194 185 0 0
-2.7483 6.0769 2.9543 0.824 -0.526 -0.209 145 196 187 0 0
-2.7254 6.1209 2.9628 0.773 -0.591 -0.232 143 194 185 0 0
-2.6971 6.1250 2.9643 0.915 -0.316 -0.250 140 193 183 0 0
-2.7030 6.1669 2.9716 0.915 -0.402 -0.046 138 191 181 0 0
-2.6959 6.1832 2.9747 0.716 -0.689 0.114 140 193 184 0 0
-2.6770 6.2068 2.9795 0.441 -0.819 0.368 142 195 187 0 0
-2.6693 6.2538 2.9881 0.585 -0.800 -0.133 139 192 184 0 0
-2.6586 6.2634 2.9901 0.575 -0.803 -0.157 139 192 184 0 0
-2.6375 6.2520 2.9887 0.854 -0.515 0.070 138 191 183 0 0
-2.6293 6.2669 2.9916 0.934 -0.294 0.205 137 190 182 0 0
-2.6207 6.3134 3.0001 0.800 -0.426 0.423 137 190 182 0 0
-2.6122 6.3281 3.0030 0.817 -0.482 0.316 142 195 187 0 0
-2.6051 6.3461 3.0064 0.865 -0.404 0.299 136 192 183 0 0
-2.5979 6.3639 3.0098 0.897 -0.391 0.205 135 191 182 0 0
-2.5910 6.3825 3.0133 0.868 -0.486 -0.099 136 192 183 0 0
-2.5751 6.3820 3.0137 -0.241 -0.888 -0.392 134 190 181 0 0
-2.5715 6.4079 3.0184 0.536 -0.555 -0.636 134 190 181 0 0
-2.5533 6.4366 3.0241 0.433 -0.374 -0.820 135 191 182 0 0
-2.5150 6.5267 3.0412 0.874 -0.193 -0.447 134 190 181 0 0
-2.5084 6.5477 3.0452 0.902 -0.157 -0.402 134 190 181 0 0
-2.5013 6.5676 3.0489 0.933 -0.208 -0.292 135 191 182 0 0
-2.4948 6.5892 3.0530 0.906 -0.220 -0.361 134 190 181 0 0
-2.4824 6.5976 3.0548 0.765 -0.605 -0.220 136 189 181 0 0
-2.4702 6.6066 3.0568 0.735 -0.635 -0.237 135 188 180 0 0
-2.4575 6.6142 3.0585 0.283 -0.802 -0.526 132 186 178 0 0
-2.4496 6.6333 3.0621 0.548 -0.824 0.140 133 189 180 0 0
-2.4381 6.6442 3.0644 0.724 -0.689 -0.025 132 188 179 0 0
-2.4324 6.6686 3.0689 0.978 -0.206 0.025 131 187 178 0 0
-2.4251 6.6895 3.0729 0.983 -0.178 0.043 133 189 180 0 0
-2.4205 6.7556 3.0848 0.672 -0.458 -0.581 130 186 177 0 0
-2.4008 6.7478 3.0840 0.803 -0.552 0.225 129 185 176 0 0
-2.3935 6.7695 3.0881 0.351 -0.884 0.308 128 184 175 0 0
-2.3794 6.7749 3.0894 0.262 -0.887 0.380 123 179 170 0 0
-2.3649 6.7797 3.0907 0.262 -0.887 0.380 128 184 175 0 0
-2.3698 6.8317 3.0998 0.898 -0.249 0.364 126 182 173 0 0
-2.3598 6.8887 3.1103 0.758 -0.573 -0.312 127 183 174 0 0
-2.3551 6.9183 3.1157 0.609 -0.503 -0.613 124 180 171 0 0
-2.3328 6.9461 3.1213 0.756 -0.521 -0.397 124 180 171 0 0
-2.3199 6.9560 3.1234 0.903 -0.414 -0.119 124 180 171 0 0
-2.2904 7.0093 3.1338 0.836 -0.523 -0.169 119 175 166 0 0
-2.2886 7.0482 3.1408 0.961 -0.273 -0.041 120 176 167 0 0
-2.2127 7.0714 3.1471 -0.860 -0.485 -0.162 67 108 98 0 0
-2.1253 7.0168 3.1399 -0.147 -0.932 -0.330 60 85 72 0 0
-2.0022 6.9516 3.1317 0.884 -0.339 -0.322 45 46 40 0 0
-1.9867 6.9545 3.1327 0.283 -0.795 -0.537 45 46 40 0 0
-1.9390 7.2107 3.1798 -0.873 -0.483 -0.070 41 42 36 0 0
-1.8915 7.2753 3.1927 0.947 -0.296 0.127 40 41 35 0 0
-1.8816 7.3525 3.2068 0.979 -0.167 -0.114 41 41 36 0 0
-1.7221 7.6419 3.2630 0.093 -0.460 0.883 42 40 35 0 0
-1.6691 7.6434 3.2648 0.045 -0.481 0.875 48 43 39 0 0
-1.6528 7.6491 3.2662 0.100 -0.466 0.879 60 57 50 0 0
-1.6384 7.6617 3.2689 0.217 -0.441 0.871 59 56 48 0 0
-1.6363 7.7200 3.2794 0.339 -0.309 0.889 61 57 49 0 0
-1.6314 7.7689 3.2882 0.820 -0.125 0.559 58 53 47 0 0
-1.5280 7.8591 3.3073 -0.464 -0.742 0.483 54 54 46 0 0
-1.5114 7.8654 3.3089 -0.705 -0.674 -0.221 54 54 46 0 0
-1.4915 7.8583 3.3082 -0.711 -0.386 -0.587 51 51 44 0 0
-0.8502 6.4626 3.0774 -0.649 -0.685 -0.331 42 43 37 0 0
-0.8274 6.4227 3.0710 0.893 -0.354 -0.277 43 44 38 0 0
-0.7585 6.2190 3.0366 0.819 -0.533 -0.211 45 45 39 0 0
-0.6811 6.1845 3.0326 -0.810 -0.568 -0.146 45 46 40 0 0
-0.4839 5.9157 2.9903 -0.169 -0.080 -0.982 62 58 49 0 0
-0.4663 5.8891 2.9861 -0.315 -0.104 -0.943 60 56 47 0 0
-0.3594 5.7006 2.9555 -0.410 -0.128 -0.903 63 60 52 0 0
-0.1685 5.3856 2.9047 -0.441 -0.141 -0.886 97 94 87 0 0
-0.1550 5.3728 2.9028 -0.712 -0.506 -0.487 100 99 90 0 0
-0.1404 5.3502 2.8992 -0.764 -0.483 -0.429 106 106 96 0 0
-0.0827 5.2568 2.8842 -0.875 -0.384 -0.293 153 153 143 0 0
-0.0722 5.2694 2.8867 -0.054 -0.439 0.897 156 155 146 0 0
0.1245 5.5024 2.9340 0.286 -0.192 0.939 157 157 147 0 0
0.2523 5.0704 2.8605 0.458 -0.245 0.855 158 158 148 0 0
1.2373 7.0188 3.2365 0.897 -0.364 0.250 173 170 158 0 0
1.2590 7.0834 3.2486 0.921 -0.335 0.196 168 164 153 0 0
1.2816 7.1530 3.2617 0.921 -0.335 0.196 165 161 150 0 0
