ply
format ascii 1.0
element vertex 422
property float x
property float y
property float z
property uchar diffuse_red
property uchar diffuse_green
property uchar diffuse_blue
end_header
-0.23302557483532668 3.247935887945863 1.501178672564708 101 82 73
0.9620926452413607 3.689053443713378 1.5556943756648909 33 29 26
-0.49726472278620715 3.3883012217031636 1.1962787334504983 90 77 59
0.0037072330529478786 3.352156726262915 1.3705030896514674 74 60 46
-0.5283949601985937 3.3991203267349 1.1579263010549539 83 70 54
-0.07507677371974197 2.4262959128775208 -0.10900267210773147 156 151 143
-0.7664927329068505 3.380459168146982 1.1343682396502865 68 52 42
0.11423421088256926 3.3707140846300807 1.3777942024480607 110 93 80
1.3916795828408084 3.6093880884367158 0.6127713564042987 65 62 57
-0.827625671129503 2.364950137740587 -0.17658949321058154 42 34 29
0.41858062530737783 3.3476608469714257 1.5009665175881375 141 127 116
0.10469120801849317 3.4648819357896925 1.1814972732300522 112 97 89
-0.7746502243185036 2.261199176491888 -0.31999719589498105 63 58 54
0.45217863228535593 3.480196111978437 1.2455322163159155 155 141 130
-0.39682646020229667 3.291060722366807 1.3846252013247244 90 73 55
-0.6822524636397888 3.4203759946631305 1.0836055843516885 76 61 46
0.9402016147474443 2.9422521378536346 0.04260382025173783 174 172 158
0.9679832077790501 3.6456268013919484 1.6968853269151476 13 11 12
0.42794456853930524 3.490056401328266 1.2214647791872018 96 77 62
0.26655870903249623 2.548510590767328 -0.8715782374970511 170 136 88
1.7162108691324052 3.819857683235881 0.9257746010554551 105 98 92
0.06413818185446482 3.43345575160198 1.2415247011231152 107 94 87
0.2555713552436936 3.5079788632167683 1.1452866494186806 157 145 128
0.9432293757047857 3.7994629850485713 0.748679930222463 172 165 157
-0.09329800588700579 2.5169122853340307 -0.024224886864247893 32 20 16
-0.37506250338119784 3.234469947981545 1.5052162805669276 94 78 63
0.10650523979919506 3.43684123099649 1.2293483013383468 143 133 119
-0.290569187975351 3.3229731602518253 1.3543080521901767 102 85 71
-0.09261267583422601 3.423243110502533 1.2241231599226843 53 40 31
-0.017410584882235545 1.979306137839392 -0.5327946386595184 58 51 48
0.040997874340416705 2.248266495460097 -0.6267116704126426 86 72 61
-0.6087402797183582 2.8461048855557016 0.3719719408876238 143 41 26
-0.3520588225260669 3.3597365336308957 1.2819255656937651 83 67 51
0.8629675066380743 2.482491077777337 -0.5051102784992088 98 75 60
-0.13778618506903184 3.503619448202968 1.0562794917093628 129 120 108
-0.007589046533153976 3.382435155559926 1.3154670348154902 52 38 30
1.8508098649874292 3.6543882339406477 0.7166669173399295 168 169 161
0.04226626487833382 3.4484092108603726 1.2162841191988933 132 124 111
0.04247419490720527 3.345615012915998 1.3963374885963045 97 80 64
-0.3708218796317935 3.252225544877919 1.470360046277478 45 34 28
0.12276705954414908 3.3418157700906597 1.424908796170486 86 67 53
-0.6203252529487384 3.4155156871829044 1.1137859147011904 72 56 42
-0.1937853301620741 2.3818781557286024 -0.18401522739829249 74 71 66
0.2394025277060088 3.357008408456159 1.4379090471631724 156 145 135
-0.06882895589967573 3.290829316743558 1.4693413682439134 100 81 68
-0.6942817063970669 2.340830071945089 -0.5999481141654168 60 48 43
0.23889876499417437 3.2922929012433726 1.5449152971728939 149 138 128
-0.17599016800718106 3.271697454478194 1.482635482157583 106 90 77
1.157436934911571 2.3906854182309427 -0.22958237967588238 204 205 207
-0.6737421544201697 3.327399289190921 1.2589825659252483 82 66 50
0.6581391754329969 3.8428365704232 0.5941550581978178 169 165 156
-0.6037757682216991 2.676022564582665 0.03761019582177599 64 57 51
-0.23640562698580225 3.433408408711269 1.1609653332624008 92 76 59
0.17957369533427 3.4941850667471748 1.151632939149385 145 133 119
-0.5062955363382551 3.212128877086627 1.5096281950568458 77 60 48
0.7200793444840019 2.3246086802527803 -0.31765945903836146 194 180 162
-0.2935098795155987 3.2455400368802994 1.5055585799852564 84 68 53
1.7013093725126716 3.8513165198460473 0.868229415093277 83 76 65
0.8086184170459679 3.8147405704914137 0.5788386805441672 162 150 136
-0.8436817159772039 2.3364399207470656 -0.20100892425058664 163 153 151
-0.3868204560484093 3.374513641751763 1.2535931768707986 83 67 53
1.0043673212595756 3.7286074984534605 0.8873262261944723 161 154 147
-1.0719003513426022 1.619253992597277 0.6773907756660285 154 137 124
-1.0782218040677476 1.6360989580681782 0.640864411317437 82 65 51
-0.029882514896673776 3.4791085235461887 1.1270462303936273 107 93 80
1.730846543104437 3.7890438777558506 0.9165896204711322 100 93 81
-0.4163002381710024 2.2568306660531996 -0.692032272524225 255 255 255
1.1339420339127573 3.6644539156526617 0.6103949923502525 161 157 148
-0.5527060682743108 2.3503752059156935 -0.6523808882263521 61 56 52
-0.5721231526833673 3.305298989462569 1.3196734308893883 90 69 59
-0.5541759557590817 3.3517418911975922 1.2304014599266577 85 72 56
-0.6900866755092511 3.448464212064687 1.0392190053593817 58 46 34
-0.6340314102320946 2.829338700032694 0.3951025115350535 182 135 117
0.7549546961899674 2.354136464454625 -0.344404702081158 194 178 156
1.6782236379106619 3.849621763511916 0.8853029251986749 155 154 149
1.2349829605786764 3.5515567735375364 0.44605676825750906 156 150 137
0.751145144503983 2.3462733175107195 -0.26947536804065897 215 206 191
0.2927121297609592 2.552329632902921 -0.8585929863466867 180 146 99
-0.033564112397461786 3.3044543963621185 1.4616131518078752 95 78 62
0.7763442850418271 2.345899661660622 -0.3566546013051576 52 38 31
1.3076365500795852 3.5986000986209152 1.2452948956838612 107 99 96
-0.7513236411348033 2.300740307125106 -0.6365341499592374 57 49 46
0.4277467576595628 3.3565841110886256 1.4829008655459928 146 130 120
0.9457195269083278 2.805232144678264 -0.030038647827226372 196 188 178
0.8378398156488748 2.9175837643200753 0.020694474386403438 187 180 165
0.4897824734178483 3.5483029618077073 1.1420635412445574 133 119 108
0.16948161436699938 3.417945289864071 1.293184436250644 152 142 130
-0.2757470320310725 3.440597306085947 1.1606566598600305 89 73 57
1.1210281573729715 3.699914551153573 0.9995231869509935 89 73 72
0.5554649410183674 3.66692644874368 0.5148228226387574 126 117 109
1.358741299864038 3.6177923954796554 0.48708445251102345 198 195 186
-0.08519000312720379 3.5049687888149132 1.0640910801201544 138 134 125
0.19075330359419987 3.476349697498082 1.1857977480230475 154 142 128
-1.1011842080788914 3.320101467163448 0.8872021263065835 71 59 45
-0.6583893582206584 3.3647155656210512 1.1937526800487528 17 13 11
1.032798757554111 3.8369374054509215 0.7101358771278229 166 159 151
-0.04515839720438063 3.4627432469295103 1.1565769729902249 136 127 113
-0.813801923520787 2.3434549540093763 -0.22286540650572964 77 69 65
-0.8301392656685976 2.22763450884636 -0.34439618396463373 185 175 169
0.0933051765422756 2.38629234178422 -0.1679431213485754 147 143 138
1.5872358729086675 3.809896291544602 0.9455318376271958 160 157 154
-0.4549621284937017 2.299884206523639 -0.44168224448099036 47 40 34
-0.5861973056594961 2.3483352328508893 -0.6283458958084597 48 43 38
-0.3337846768732553 3.4220346444459775 1.170745936135877 57 43 32
-0.4975923663212404 3.2271076615110252 1.4818563199112107 88 73 57
0.0706178378784687 2.4068224679814603 -0.18443956587020038 67 64 57
0.8831856125412211 2.8450180762652497 -0.019915844804600378 88 73 53
0.3328267138188041 3.5567045342054717 1.079098578934512 126 120 109
-0.43502696238490274 2.228817737389052 -0.8654118435709817 233 229 227
-0.5609292578690009 2.3331505963385304 -0.6151548949128925 45 40 37
-0.029882514896673776 3.4791085235461887 1.1270462303936273 107 93 80
0.8788464876293655 3.7523624378971077 0.8034399313322435 170 159 153
-0.7943683648961164 2.690807091107624 0.42522414663160846 145 133 125
0.7809144990001478 3.803034845934335 0.6916698627639427 148 121 100
0.22498016901538673 3.345001175505753 1.4607372930231541 117 102 93
-0.9530056694923117 3.364495536195303 1.1404143212881162 63 49 38
-0.04885648560652819 2.425596647550271 -0.1490875060679164 42 38 35
1.8513062024592328 3.695036187540794 0.6468689321579421 166 167 159
1.682412988715955 3.7227823104218953 1.0625111029609349 172 169 160
0.663525098725705 2.4043762940730242 -0.4091862361959021 82 57 37
1.734587886423974 3.8519483295282066 0.8864274149888953 107 99 88
0.34490644486968225 3.4982453714337933 1.1831563657190842 154 146 133
0.21326301836377426 2.8237861744603614 0.20830746495045896 52 38 31
0.44935325663669645 3.4554093480957655 1.3011987782361896 158 145 136
0.9040519537986931 2.828122797180689 -0.01766006703967287 179 172 162
1.6590338170476358 3.7414888609041332 1.039885007881205 170 167 161
0.18234918970905567 3.458350935821749 1.219224606272801 150 139 122
-0.7471910416859321 2.2620758779995334 -0.3359031386973664 137 126 125
1.219450396771115 2.2677533481694088 -0.3416006918564666 189 176 160
0.09167141877795376 4.9123042820971845 0.9661518244432122 32 24 20
-0.2570470481335002 3.386387540542028 1.2450461558741033 99 83 70
0.02124805749956337 3.3481581190121674 1.3920602651983984 92 75 57
-0.8190440749325804 2.2818971029066963 -0.45490408085393436 50 43 37
0.9450504340627334 3.7113199068193206 0.9536306878287991 157 150 144
1.2455497710020798 3.5889220564653397 0.5565869459166946 93 85 77
-0.4975923663212404 3.2271076615110252 1.4818563199112107 88 73 57
-0.5576119591811943 3.379298903203264 1.1896251674062837 85 67 53
-0.7441601146637224 2.6301556021689607 -0.19251697643446028 47 38 33
0.036962386852846515 3.301258982839628 1.4804076508323787 101 84 66
-0.4397132182422458 3.3328295091117175 1.2950806323275865 64 51 35
-0.3808364638484508 2.3910657273316263 -0.14364599403309236 46 41 40
-0.6848640465117077 2.772548190407328 0.06408627624330844 15 14 12
-0.9073293340460964 2.2560508758877926 -0.2653666317268835 37 33 24
-0.22914142586571204 3.3668726516043432 1.288587857768878 96 79 63
-0.8085985044329547 2.278605550770768 -0.3089681214794355 67 62 58
0.3083003201677148 3.458083112322822 1.2364795439663723 144 133 118
1.4294681146009658 3.685756908209598 1.0799695089067103 19 17 16
-0.06465785566779536 3.4344233777123576 1.2184878741652334 77 60 45
-0.45650821415539866 3.3059913049075518 1.3464521575818238 103 86 68
-0.09691761519649918 3.384852862072785 1.270687357344373 103 86 68
-0.6203252529487384 3.4155156871829044 1.1137859147011904 72 56 42
0.17957369533427 3.4941850667471748 1.151632939149385 145 133 119
-0.6296786106584258 2.848275378029308 0.32471185713680306 169 110 101
1.562702099274852 3.7525928977185283 0.9137836628190744 154 153 148
0.3986602110532871 3.501542918928416 1.2096910843991868 152 139 130
0.6866781888062425 3.816834227782395 0.6398197848669174 109 89 75
-0.14820936862648715 3.0565067541080126 0.32196532923779886 207 133 58
-0.33135621002389803 3.4029546025519224 1.1989283795468273 95 79 65
0.6028424884303933 3.564084582573064 0.9539624782017677 93 83 73
1.1589608949174786 2.609165369542919 -0.9018534232858998 78 65 50
-0.41910009919030394 3.3900498274706474 1.1997171435701777 92 78 65
-0.748484162620914 2.268060294068892 -0.3729304657809124 177 167 158
0.91463344370845 3.732075759982944 0.8551873996895656 169 164 160
-0.3326793272151956 2.201729051313655 -0.7314361627739873 217 209 207
-1.019798121052752 3.2294407183745126 1.3643867954251294 67 53 41
0.16319098188266928 3.4127202999188264 1.309288329807773 147 138 125
-0.9901034670364574 3.347213348150758 1.17653382648838 44 34 24
-0.21853762093948845 3.346433560632084 1.333238317172604 101 83 68
-0.6296786106584258 2.848275378029308 0.32471185713680306 169 110 101
0.04571004206778464 3.320998526638246 1.4455127660334008 65 51 41
0.42794456853930524 3.490056401328266 1.2214647791872018 96 77 62
-0.10724874506862311 2.6040863964798797 0.0493706083518828 196 136 75
-0.3184995328666484 3.297021564484078 1.4011666245167285 78 63 51
1.7105530835979856 3.731023257558753 1.1212571777805094 29 28 23
-0.31617938932987755 2.2040032412243735 -0.7360131837937022 245 242 241
1.039158165546532 3.7038092969803813 1.371062292686126 34 31 26
0.10925924025392666 3.477558446857221 1.171887888605526 105 89 82
-0.49571928631003315 3.351141784449361 1.2428620401731496 83 68 55
-0.028165105066402085 3.4336716784780577 1.2182662691219066 123 110 99
-0.22562808906298581 3.472802682425085 1.0945906938597305 51 39 29
-0.5782396115570274 3.3724715446336577 1.195570821177256 89 71 59
-0.5117283720702329 3.275629533820999 1.3918827606422595 93 77 64
-0.10767613191650675 3.3045604591322864 1.4302656927841755 90 72 58
-0.14870398505701357 3.4139543403001746 1.2505189310418514 99 82 62
0.1377166648229966 3.288097314467606 1.5432152879643088 105 83 69
-0.4232416267731156 2.255985743488275 -0.9946976743087683 221 211 209
0.04571004206778464 3.320998526638246 1.4455127660334008 65 51 41
1.113450872567538 3.73042156926135 1.3651092888934355 27 26 22
0.6866781888062425 3.816834227782395 0.6398197848669174 109 89 75
-0.034959739854263545 3.3939442849186987 1.2802958146744823 79 63 48
-0.3005388497704801 3.4025905659239797 1.2038064669219044 58 45 38
1.1926067338999176 2.6058521234382175 -0.8914651253633303 250 249 251
-0.07712991236603116 3.3344383745629074 1.4028838349440087 101 80 69
-0.131904994403389 3.313659696041951 1.4511116039137493 96 78 64
1.1302737948096673 3.749130056849846 0.9296489636733771 157 153 146
-0.3337846768732553 3.4220346444459775 1.170745936135877 57 43 32
1.393922188195163 3.6783683409619017 0.8457120720501856 41 29 22
-0.21128088388393299 3.4157978970307457 1.1927735347903052 85 71 58
1.09005332340316 3.839055793373884 0.7139468322619962 161 155 147
0.28774132842453676 3.305101694025841 1.5365015822287953 147 134 121
-0.5680711395926147 2.371182792768925 -1.1453728111612422 231 227 224
-0.5782396115570274 3.3724715446336577 1.195570821177256 89 71 59
0.18586226685977422 2.9598455369349166 0.34058400747900003 210 136 54
-0.2719657359554037 3.4727110847694282 1.0842835392108559 61 47 34
-0.21853762093948845 3.346433560632084 1.333238317172604 101 83 68
-0.44948511678845476 3.2628907829428293 1.4274186190060854 92 74 60
-0.14089921165527527 3.441188034725589 1.189782560281508 75 59 46
1.2052402470602106 3.665803500587873 0.760140577271897 171 162 160
-1.081705195722975 1.8679656147853518 0.21646901098479937 166 149 130
-0.3708218796317935 3.252225544877919 1.470360046277478 45 34 28
0.9138899497751161 3.6907217425467524 0.9672624219781025 161 154 148
0.48075732367419977 3.3915412325463197 1.4258902289908828 148 135 126
-0.6583893582206584 3.3647155656210512 1.1937526800487528 17 13 11
0.9006005685850355 2.526875224070979 -0.14809243281449233 210 213 212
0.8153373712041003 3.6368499356147503 1.0100852199859218 162 154 143
0.04532508936309383 2.399116394397624 -0.6396443449686473 42 36 30
-0.3730515194634809 3.8520802071695104 -0.5442240013019891 157 149 137
1.6861651652349814 3.8343216286922384 0.9263149849231713 161 161 157
1.130382886424095 2.619509464957674 -0.7702948039116595 35 26 18
0.05746316301076041 3.403880850381836 1.2819910704134436 109 96 83
-0.5274316165717913 2.283162454237626 -0.6904688057681231 254 253 253
-1.1334624884806916 3.3296605726212913 1.1558604534255388 59 46 35
0.7886303781829096 3.7675600090818446 0.8050255003940622 183 180 175
-0.5103745351966549 2.3587628634576023 -0.6393232901494044 70 65 64
-0.1851998962855556 3.4133034939128706 1.2147188344893765 30 24 20
0.022720617717193792 3.396539289835285 1.2939317876508838 53 40 35
0.49021020012066857 3.4427311472291215 1.3371546870678992 158 145 133
-0.22914142586571204 3.3668726516043432 1.288587857768878 96 79 63
-0.8240426902994258 3.349569584896681 1.1893756433970493 79 66 49
0.16963984327427462 3.298033732338734 1.532985956706707 44 31 28
-1.0652176587859334 1.7834669032946295 0.37850604969975493 173 161 148
0.8512129326913024 3.7899018563158515 0.7165017262138176 189 180 175
-0.016140007969097085 3.2917651093782174 1.4763542345480685 101 85 68
0.24457069884591318 3.331902413499451 1.4983307566215343 135 122 114
0.8490744914981212 2.5173818727049078 -0.49334079322852564 139 130 118
1.1745968797849216 3.643458033822788 1.0728889766930232 29 27 28
0.4148491292233552 3.471668955230636 1.2714953752666494 163 151 137
-0.11840926393477043 3.3466073269848495 1.3492444629834617 93 76 61
0.821398306481026 2.961912827692233 0.0539803967902165 64 54 44
0.036962386852846515 3.301258982839628 1.4804076508323787 101 84 66
0.055870381962539704 2.1533818650097665 -0.22882171134101092 66 65 60
1.613289835774237 3.7250570758474644 1.078099011944367 169 165 156
0.9587099590941586 3.6355972660442277 1.0207645059135768 162 156 146
-0.3520588225260669 3.3597365336308957 1.2819255656937651 83 67 51
0.04226626487833382 3.4484092108603726 1.2162841191988933 132 124 111
-0.3552917365514205 3.278328130900806 1.425722457424433 93 77 61
0.4427184484374933 3.467346261551171 1.2689111488401221 59 44 34
0.0854203092060198 3.3891747119204907 1.336312160554694 133 123 111
0.4170182359379009 3.5079046047376368 0.7320675019194361 163 149 140
1.3076365500795852 3.5986000986209152 1.2452948956838612 107 99 96
0.629507881572406 2.403800703747938 -0.42389071723109323 34 30 23
0.24858225416582352 3.405362550656722 1.3336797123328379 144 128 111
0.26091248342156165 3.3595832594231374 1.396253633831197 158 150 139
1.0933852233147232 3.791187993986447 1.335283963646302 141 135 124
0.4346085213610782 3.396361195546988 1.396029951219159 155 141 130
0.519122382999298 2.5035678202209684 -0.6058667254167908 52 48 44
0.07146303882007271 3.3463989732301904 1.3922383111246195 88 70 60
-1.1677538439120434 3.326824090743361 1.137439377792789 37 26 19
0.11532135475351435 3.3995366312834503 1.3093879980148473 125 112 98
1.2906061543569476 3.505392304667735 0.5496314195127262 72 69 61
0.4346085213610782 3.396361195546988 1.396029951219159 155 141 130
-0.7410656783597032 2.681036291424847 0.41893969487900967 197 190 181
0.49021020012066857 3.4427311472291215 1.3371546870678992 158 145 133
-0.6725318976783824 2.7828359774180855 0.4731196455744158 118 28 20
0.4144322547010527 3.4276214306591597 1.3453969073213166 151 134 120
0.8016704473983565 2.340397806247646 -0.33435307890073696 192 177 157
-0.5103745351966549 2.3587628634576023 -0.6393232901494044 70 65 64
-1.0614255823125063 1.6119050805358262 0.7104501481240473 150 138 123
0.8490744914981212 2.5173818727049078 -0.49334079322852564 139 130 118
-0.23302557483532668 3.247935887945863 1.501178672564708 101 82 73
-0.29062779435472336 2.2116778331027844 -0.735572610121263 161 136 108
-0.5543807442174536 3.2523580399403174 1.4126327596427932 80 67 51
-0.5559206336275824 2.4298039913784457 -0.6171449760905372 75 70 67
-0.3552917365514205 3.278328130900806 1.425722457424433 93 77 61
-0.22617543323473457 3.4761215348311145 1.0703253213104114 70 56 45
-0.5643588862658053 3.244490858332682 1.4351587036825835 71 58 42
0.8886867335434319 3.6115009736333747 1.0445654990047855 56 48 46
-0.17654295789837932 3.3704882368088223 1.2807501397653505 71 56 40
-0.8190440749325804 2.2818971029066963 -0.45490408085393436 50 43 37
0.9340996055072888 3.707063240761003 1.6056903155751123 42 40 40
1.367950245495953 3.62844140457287 0.9572555469104408 137 37 25
0.9917747144570923 2.228979301568429 -0.28887109809246736 211 218 215
1.0003533891125371 3.785098219478059 0.7800192820580301 172 165 159
-0.5821781740770118 2.8976559037090204 0.33085900539959023 136 33 21
0.35189989890541257 3.5201288825041317 1.151951866103038 150 140 129
-1.0007957863254444 2.264961044715876 -0.36177641499406804 112 96 79
0.269424896941311 3.398098645041619 1.3409743354553398 153 140 130
1.690936745841011 3.7806325408727424 0.9956884431995315 147 144 140
1.3531747894365642 2.6262370375724617 -0.1465704468350843 202 200 201
0.9164497276686634 3.6233990638740092 1.0241703390866654 153 144 136
0.16948161436699938 3.417945289864071 1.293184436250644 152 142 130
-0.2907745963433797 3.258330096296933 1.4638809343517079 98 81 66
1.1926746734436688 3.688286655755426 1.3241414132263252 19 19 19
-0.22571687408788094 3.3662023351712866 0.9426947707328417 102 85 70
1.136554516453281 3.675635024547098 0.6969341847162854 28 66 131
-1.0727857445209972 1.6579014756472172 0.6016195578894006 168 152 141
-0.5543807442174536 3.2523580399403174 1.4126327596427932 80 67 51
-0.28921260584747854 3.2889027821201804 1.423648125542197 94 73 64
0.9340996055072888 3.707063240761003 1.6056903155751123 42 40 40
-0.32566640437217936 3.490708545044485 1.0357203153562529 25 16 17
-0.092972594116839 3.479373532050907 1.114037949219482 139 131 114
0.16948161436699938 3.417945289864071 1.293184436250644 152 142 130
0.4780995193253883 3.4809467564870995 1.272530433542015 163 149 138
0.1350543797790605 3.4761470397318286 1.1792617811841841 135 121 111
-1.058411218707271 1.778861725443402 0.42326986934054733 173 162 149
-0.8578943802726363 3.409040562337338 1.095170639097676 66 52 39
0.44935325663669645 3.4554093480957655 1.3011987782361896 158 145 136
0.8269913221603674 2.343556997822042 -0.3554729092040544 48 38 30
-0.8240426902994258 3.349569584896681 1.1893756433970493 79 66 49
0.1585060959437967 3.360845581850627 1.3733193141926838 113 101 87
1.1466016333518736 3.627958386141676 0.646586810447795 30 40 76
1.2939232447366997 3.5272424755765988 0.9565302085795118 77 60 55
0.2837463119343597 3.3212088169536953 1.5039507226294746 93 75 62
-0.542826661742824 3.3135561246012033 1.312943374024835 89 70 56
1.105695074883431 2.48694889123753 -0.19318935184914446 216 215 211
-0.016140007969097085 3.2917651093782174 1.4763542345480685 101 85 68
1.1272709232358002 2.620522359646232 -0.7517265089238347 118 83 55
1.0640389474720462 3.762822126232899 0.834343707497173 165 161 153
0.49112821913120236 3.481021478665088 0.9751236416424635 22 21 19
1.0933852233147232 3.791187993986447 1.335283963646302 141 135 124
-0.19250029300095384 3.2372267020423577 1.5421663953714853 98 85 68
-0.9821830887739168 3.212908778764464 1.4190438421217215 39 24 11
-0.17599016800718106 3.271697454478194 1.482635482157583 106 90 77
0.10469120801849317 3.4648819357896925 1.1814972732300522 112 97 89
0.38156667135391675 3.5508135142472055 1.0899799884261112 145 136 127
-0.0027331145276012292 1.9364804201064763 -0.2812331669698297 159 149 137
1.1749308938242258 2.565121915313046 -0.9160019519377637 55 46 33
0.9679832077790501 3.6456268013919484 1.6968853269151476 13 11 12
-0.41859587188184716 3.372823870154819 1.236905650750998 91 75 59
-0.9946730463307684 2.2659340606743434 -0.47884129525175445 112 97 82
-0.1523489596312797 3.466402201761649 1.119688700528827 93 77 57
-0.3927501010102476 2.385101038857731 -0.16330201539682168 149 140 132
0.18990883983215626 3.366580261031716 1.3889606945379787 153 140 128
0.8869217291867801 2.8733942828986296 0.009635233686425148 48 41 34
-0.11840926393477043 3.3466073269848495 1.3492444629834617 93 76 61
1.1033104416260122 3.852670453424351 0.8222128649245907 155 147 142
-1.0010371144008028 3.212457855966996 1.394885071616539 67 53 40
-0.7916109951061056 3.382878621291865 1.1423446360939513 75 59 47
-0.5798900378978544 2.3375028820942925 -0.6497570092382405 67 62 58
1.2080551689719088 2.271003509977918 -0.3167697104307491 121 95 76
-0.3384807388863141 3.328484621772619 1.3414138679656233 97 79 67
1.2599965279199596 3.516505358512351 1.0297589743043984 24 19 20
-0.2572870009935011 3.4108243386868735 1.2014310584211412 22 14 12
0.6961347678206659 3.844002856134312 0.610807869846708 168 160 150
-0.6524534079514622 3.3762193899370163 1.1686673693410115 88 70 55
1.555923475143865 3.7276317210134833 1.0569958993811517 168 163 154
0.4427184484374933 3.467346261551171 1.2689111488401221 59 44 34
0.04014233393203917 1.9076629291337135 -0.24741356455972205 63 63 58
1.2751837746462713 3.4976157782285795 0.4947473576574101 180 175 164
-0.20867094497300884 3.2547396079496393 1.5078710008523737 107 93 80
0.9687515009089247 3.6906551638526106 1.5933887562953968 19 17 19
-0.7943683648961164 2.690807091107624 0.42522414663160846 145 133 125
-1.0007957863254444 2.264961044715876 -0.36177641499406804 112 96 79
-0.7592802771705083 2.669679170888663 0.44467262570533816 84 25 18
0.7937115059312396 2.9290112237271084 0.030490662102241033 147 138 127
-0.45650821415539866 3.3059913049075518 1.3464521575818238 103 86 68
0.17957369533427 3.4941850667471748 1.151632939149385 145 133 119
0.1271235797854715 3.5072205108666807 1.110838254074857 150 140 131
-1.012884228670755 3.3912444380788855 1.1063042053117345 40 30 21
-0.7309631423467006 2.8273948240973534 0.20223718230695678 50 45 39
0.054708408560473216 3.3956915154071674 1.3051005250620678 139 129 119
0.34805163793523486 3.444315601566407 1.3505374267603918 143 129 118
-0.48882722026961467 0.004424048162131374 -0.04214872040569086 255 0 0
-0.26708761774674805 -0.010213735783631621 -0.04215060215383188 255 0 0
-0.04534801522388138 -0.024851519729394617 -0.0421524839019729 255 0 0
0.1763915872989853 -0.039489303675157614 -0.04215436565011392 255 0 0
0.3981311898218519 -0.05412708762092061 -0.042156247398254944 255 0 0
0.6198707923447186 -0.06876487156668361 -0.04215812914639596 255 0 0
0.8416103948675853 -0.08340265551244659 -0.042160010894536984 255 0 0
1.0633499973904519 -0.09804043945820957 -0.04216189264267801 255 0 0
1.2850895999133185 -0.11267822340397259 -0.042163774390819024 255 0 0
1.5068292024361853 -0.12731600734973558 -0.04216565613896005 255 0 0
-0.48882722026961467 0.004424048162131374 -0.04214872040569086 0 255 0
-0.48882917289087685 0.004423036587629016 -0.26437094261703203 0 255 0
-0.48883112551213903 0.004422025013126658 -0.4865931648283732 0 255 0
-0.48883307813340116 0.0044210134386243 -0.7088153870397144 0 255 0
-0.48883503075466334 0.004420001864121942 -0.9310376092510556 0 255 0
-0.4888369833759255 0.004418990289619584 -1.153259831462397 0 255 0
-0.48883893599718764 0.004417978715117225 -1.375482053673738 0 255 0
-0.4888408886184498 0.004416967140614868 -1.5977042758850792 0 255 0
-0.488842841239712 0.004415955566112509 -1.8199264980964205 0 255 0
-0.4888447938609742 0.004414943991610151 -2.0421487203077615 0 255 0
-0.48882722026961467 0.004424048162131374 -0.04214872040569086 0 0 255
-0.47418943633313426 0.22616365069067518 -0.04214985840248393 0 0 255
-0.4595516523966539 0.447903253219219 -0.042150996399277 0 0 255
-0.4449138684601735 0.6696428557477627 -0.04215213439607008 0 0 255
-0.43027608452369315 0.8913824582763066 -0.04215327239286315 0 0 255
-0.41563830058721274 1.1131220608048504 -0.04215441038965623 0 0 255
-0.4010005166507324 1.334861663333394 -0.0421555483864493 0 0 255
-0.386362732714252 1.556601265861938 -0.042156686383242374 0 0 255
-0.3717249487777716 1.7783408683904818 -0.042157824380035444 0 0 255
-0.3570871648412912 2.0000804709190256 -0.04215896237682852 0 0 255
0.47618724575517807 0.042228676313422545 -0.020349833083214662 255 0 0
0.6929409690263237 0.08622642808194379 0.0012079343520718724 255 0 0
0.9096946922974694 0.13022417985046503 0.022765701787358407 255 0 0
1.126448415568615 0.1742219316189863 0.04432346922264494 255 0 0
1.3432021388397606 0.21821968338750752 0.06588123665793147 255 0 0
1.5599558621109064 0.2622174351560288 0.087439004093218 255 0 0
1.7767095853820518 0.30621518692455 0.10899677152850454 255 0 0
1.9934633086531974 0.35021293869307124 0.13055453896379104 255 0 0
2.210217031924343 0.3942106904615925 0.1521123063990776 255 0 0
2.4269707551954887 0.4382084422301138 0.17367007383436414 255 0 0
0.47618724575517807 0.042228676313422545 -0.020349833083214662 0 255 0
0.4960839483066784 0.052536311674919914 -0.24143938491733963 0 255 0
0.5159806508581787 0.06284394703641728 -0.46252893675146456 0 255 0
0.535877353409679 0.07315158239791465 -0.6836184885855896 0 255 0
0.5557740559611793 0.08345921775941202 -0.9047080404197145 0 255 0
0.5756707585126797 0.09376685312090939 -1.1257975922538395 0 255 0
0.59556746106418 0.10407448848240676 -1.3468871440879644 0 255 0
0.6154641636156803 0.11438212384390412 -1.5679766959220893 0 255 0
0.6353608661671806 0.1246897592054015 -1.7890662477562143 0 255 0
0.655257568718681 0.13499739456689885 -2.0101557995903394 0 255 0
0.47618724575517807 0.042228676313422545 -0.020349833083214662 0 0 255
0.43141380803753754 0.2598077804157069 -0.014235196350376785 0 0 255
0.386640370319897 0.4773868845179913 -0.008120559617538908 0 0 255
0.3418669326022565 0.6949659886202757 -0.0020059228847010314 0 0 255
0.2970934948846159 0.91254509272256 0.004108713848136845 0 0 255
0.25232005716697536 1.1301241968248446 0.010223350580974726 0 0 255
0.2075466194493349 1.3477033009271289 0.0163379873138126 0 0 255
0.16277318173169436 1.565282405029413 0.022452624046650473 0 0 255
0.11799974401405378 1.7828615091316975 0.028567260779488353 0 0 255
0.07322630629641325 2.000440613233982 0.03468189751232623 0 0 255
