ply
format ascii 1.0
element vertex 854
property float x
property float y
property float z
property float nx
property float ny
property float nz
property uchar diffuse_red
property uchar diffuse_green
property uchar diffuse_blue
property uchar class
property uchar detection
end_header
-1.0857 2.2972 0.1585 0.712 -0.542 -0.447 105 92 76 0 0
-1.1130 2.5384 0.1798 0.928 -0.373 -0.018 88 79 68 0 0
-1.1110 2.5934 0.1847 0.101 -0.338 0.936 90 81 69 0 0
-1.1064 2.5956 0.1849 0.103 -0.319 0.942 84 76 64 0 0
-1.1020 2.5991 0.1853 0.170 -0.302 0.938 58 50 40 0 0
-1.1387 2.8017 0.2031 0.270 -0.233 0.934 25 20 14 0 0
-1.0334 2.6452 0.1898 0.178 -0.288 -0.941 20 15 12 0 0
-0.7831 2.8620 0.2105 0.097 -0.280 0.955 25 21 20 0 0
-0.7757 2.8460 0.2092 0.009 -0.332 0.943 28 25 21 0 0
-0.6594 2.2351 0.1555 -0.374 -0.522 0.767 35 31 29 0 0
-0.6544 2.2300 0.1550 -0.293 -0.551 0.782 29 26 21 0 0
-0.6492 2.2209 0.1542 -0.285 -0.569 0.772 24 23 18 0 0
-0.6443 2.2149 0.1538 -0.140 -0.667 0.732 22 21 17 0 0
-0.6603 2.7641 0.2025 -0.335 -0.930 0.151 18 17 13 0 0
-0.6548 2.7675 0.2029 0.408 -0.659 0.632 19 18 15 0 0
-0.6489 2.7629 0.2025 0.678 -0.567 0.468 19 18 15 0 0
-0.6435 2.7678 0.2030 0.575 -0.653 0.492 22 19 16 0 0
-0.6380 2.7709 0.2033 0.274 -0.702 0.657 71 66 61 0 0
-0.5875 2.7887 0.2052 -0.848 -0.511 -0.138 49 44 34 0 0
-0.5815 2.7813 0.2045 -0.690 -0.505 -0.518 36 32 27 0 0
-0.4173 2.5061 0.1810 -0.401 -0.718 -0.569 69 61 51 0 0
-0.3650 2.4120 0.1729 -0.607 -0.530 0.592 69 53 40 0 0
-0.3603 2.4050 0.1723 -0.697 -0.476 0.536 67 51 38 0 0
-0.3558 2.3976 0.1717 -0.782 -0.441 0.440 70 54 41 0 0
-0.3512 2.3911 0.1712 -0.789 -0.465 0.403 71 55 43 0 0
-0.3166 2.7886 0.2068 -0.539 -0.247 0.805 67 51 38 0 0
-0.3113 2.7809 0.2061 -0.418 -0.243 0.875 72 57 44 0 0
-0.3062 2.7708 0.2052 -0.312 -0.275 0.909 78 62 52 0 0
0.0191 2.8355 0.2129 -0.099 -0.296 -0.950 124 75 49 0 0
0.1127 2.9109 0.2202 -0.680 -0.732 0.050 219 143 61 0 0
0.1152 2.8933 0.2186 -0.852 -0.412 -0.322 219 142 60 0 0
0.1764 2.8926 0.2189 0.158 -0.515 -0.843 212 135 58 0 0
0.1830 2.8944 0.2191 0.219 -0.583 -0.783 176 108 56 0 0
0.1894 2.8953 0.2192 -0.253 -0.947 0.195 130 81 53 0 0
0.2248 2.9142 0.2211 -0.176 -0.282 0.943 59 49 38 0 0
0.2297 2.9088 0.2207 -0.409 -0.234 0.882 58 46 34 0 0
0.2327 2.8958 0.2195 -0.570 -0.232 0.788 58 47 36 0 0
0.2349 2.8801 0.2181 -0.716 -0.213 0.665 59 48 38 0 0
0.2376 2.8665 0.2169 -0.844 -0.167 0.509 59 45 35 0 0
0.2512 2.8486 0.2154 -0.586 -0.614 -0.530 58 40 30 0 0
0.2560 2.8434 0.2150 -0.390 -0.642 -0.660 64 41 31 0 0
0.3000 2.8486 0.2157 -0.290 -0.455 -0.842 137 72 33 0 0
0.3205 2.8142 0.2128 -0.840 -0.390 -0.377 117 47 19 0 0
0.3235 2.8037 0.2119 -0.818 -0.348 -0.458 121 48 18 0 0
0.3265 2.7932 0.2109 -0.652 -0.471 -0.594 123 50 19 0 0
0.3311 2.7885 0.2105 -0.536 -0.626 -0.566 124 51 19 0 0
0.3335 2.7765 0.2095 0.042 -0.957 0.286 125 51 18 0 0
0.3373 2.7692 0.2089 -0.409 -0.735 0.540 141 67 25 0 0
0.3400 2.7587 0.2079 -0.524 -0.317 0.791 174 92 37 0 0
0.3406 2.7412 0.2064 -0.491 -0.287 0.823 188 105 37 0 0
0.3431 2.7299 0.2054 -0.410 -0.289 0.865 199 116 39 0 0
0.6557 2.8627 0.2191 0.794 -0.401 -0.457 164 154 138 0 0
0.8641 3.3289 0.2618 -0.021 -0.423 0.906 97 89 76 0 0
0.8352 2.6117 0.1978 0.557 -0.512 0.654 144 141 136 0 0
1.2218 3.0539 0.2394 -0.170 -0.299 -0.939 145 146 133 0 0
1.2179 3.0348 0.2377 -0.438 -0.580 -0.687 147 147 135 0 0
1.2181 3.0233 0.2366 0.159 -0.933 -0.323 145 142 130 0 0
1.2303 3.0330 0.2376 -0.804 -0.485 -0.344 118 115 100 0 0
1.2338 3.0272 0.2371 -0.927 -0.210 -0.311 113 108 91 0 0
1.4550 3.2995 0.2626 0.148 -0.251 0.957 142 134 127 0 0
1.4692 3.3111 0.2637 0.139 -0.252 0.958 174 165 159 0 0
1.5982 3.4638 0.2781 0.216 -0.278 0.936 163 154 148 0 0
1.7393 3.2612 0.2609 0.066 -0.370 0.927 167 163 154 0 0
-1.1079 1.9157 0.1205 0.254 -0.893 -0.370 154 133 115 0 0
-1.1045 1.9169 0.1206 0.167 -0.890 -0.425 142 118 96 0 0
-1.1004 1.9161 0.1206 0.287 -0.888 -0.359 134 109 87 0 0
-1.0971 1.9174 0.1207 0.401 -0.859 -0.319 135 104 89 0 0
-1.0937 1.9188 0.1209 0.445 -0.829 -0.339 136 107 87 0 0
-1.0905 1.9205 0.1210 0.445 -0.829 -0.339 165 144 123 0 0
-1.0825 1.9317 0.1220 0.677 -0.582 -0.450 183 168 151 0 0
-1.0769 1.9384 0.1227 0.657 -0.565 -0.499 179 164 145 0 0
-1.1015 2.2063 0.1458 -0.321 -0.721 0.614 100 88 75 0 0
-1.0956 2.2008 0.1454 0.300 -0.628 0.718 135 122 114 0 0
-1.0895 2.2107 0.1463 0.966 -0.233 0.111 67 49 46 0 0
-1.0936 2.2926 0.1534 0.864 -0.393 -0.315 95 81 69 0 0
-1.0900 2.2961 0.1537 0.744 -0.475 -0.470 110 96 83 0 0
-1.1193 2.5230 0.1733 0.677 -0.634 0.374 97 85 76 0 0
-1.1127 2.5371 0.1745 0.874 -0.442 0.202 82 74 63 0 0
-1.1072 2.5774 0.1781 0.259 -0.331 0.907 78 70 58 0 0
-1.1211 2.8235 0.1994 0.414 -0.306 0.858 27 19 16 0 0
-1.1152 2.8481 0.2016 -0.072 -0.339 0.938 24 18 15 0 0
-1.0448 2.7817 0.1962 -0.393 -0.584 0.710 25 20 16 0 0
-0.7722 2.8114 0.2003 0.081 -0.322 0.943 26 22 20 0 0
-0.6689 2.2398 0.1512 -0.400 -0.523 0.753 43 40 33 0 0
-0.6639 2.2348 0.1508 -0.313 -0.521 0.794 41 38 33 0 0
-0.6590 2.2305 0.1505 -0.301 -0.515 0.803 38 34 30 0 0
-0.6541 2.2261 0.1501 -0.136 -0.538 0.832 29 26 21 0 0
-0.6492 2.2205 0.1496 -0.139 -0.629 0.765 22 21 17 0 0
-0.6448 2.2221 0.1498 0.402 -0.602 0.689 21 20 16 0 0
-0.6600 2.7602 0.1965 0.001 -0.882 0.471 20 19 16 0 0
-0.6489 2.7637 0.1969 0.445 -0.610 0.655 18 17 15 0 0
-0.6112 2.8077 0.2009 0.585 -0.616 -0.527 42 40 32 0 0
-0.5939 2.8071 0.2010 -0.826 -0.399 -0.398 37 33 29 0 0
-0.5877 2.7953 0.2000 -0.658 -0.392 -0.643 26 23 20 0 0
-0.5818 2.7889 0.1995 -0.662 -0.477 -0.578 23 21 19 0 0
-0.5761 2.7896 0.1996 -0.307 -0.500 -0.810 20 19 17 0 0
-0.3981 2.2142 0.1505 0.134 -0.162 0.978 89 78 66 0 0
-0.3931 2.2233 0.1514 0.134 -0.162 0.978 83 72 60 0 0
-0.3607 2.3992 0.1668 -0.637 -0.481 0.602 71 53 43 0 0
-0.3561 2.3909 0.1661 -0.661 -0.447 0.603 71 55 42 0 0
-0.3516 2.3831 0.1655 -0.707 -0.406 0.579 71 55 42 0 0
-0.2917 2.7316 0.1961 -0.330 -0.276 0.903 111 99 86 0 0
-0.2867 2.7230 0.1954 -0.376 -0.264 0.888 131 117 105 0 0
-0.2826 2.7020 0.1936 -0.555 -0.240 0.797 147 132 118 0 0
-0.2813 2.3932 0.1668 -0.854 -0.377 0.358 210 138 66 0 0
0.0214 2.8484 0.2081 -0.129 -0.296 -0.946 108 69 47 0 0
0.0266 2.8440 0.2077 -0.227 -0.252 -0.941 117 82 64 0 0
0.0823 2.9131 0.2141 0.025 -0.357 0.934 182 115 53 0 0
0.1557 2.9100 0.2142 -0.368 -0.228 -0.901 217 140 53 0 0
0.1603 2.9030 0.2136 -0.105 -0.268 -0.958 217 139 52 0 0
0.1670 2.9055 0.2139 -0.125 -0.403 -0.907 213 137 63 0 0
0.1730 2.9046 0.2139 -0.601 -0.727 -0.332 176 108 55 0 0
0.1782 2.9003 0.2135 -0.603 -0.516 0.608 127 75 43 0 0
0.1865 2.8830 0.2121 -0.297 -0.509 0.808 89 63 54 0 0
0.2254 2.8914 0.2130 -0.456 -0.258 0.851 61 48 35 0 0
0.2291 2.8815 0.2122 -0.479 -0.230 0.847 59 45 32 0 0
0.2322 2.8697 0.2112 -0.586 -0.203 0.784 58 41 30 0 0
0.2521 2.8520 0.2097 -0.435 -0.861 -0.264 81 47 31 0 0
0.2612 2.8632 0.2108 0.134 -0.484 -0.865 101 55 31 0 0
0.2677 2.8648 0.2109 0.192 -0.479 -0.857 129 67 33 0 0
0.2734 2.8631 0.2108 0.065 -0.389 -0.919 156 86 40 0 0
0.2922 2.8649 0.2111 0.012 -0.462 -0.887 195 109 32 0 0
0.2991 2.8676 0.2114 -0.775 -0.574 -0.265 178 95 30 0 0
0.3030 2.8596 0.2107 -0.885 -0.465 -0.034 126 56 16 0 0
0.3069 2.8518 0.2100 -0.918 -0.350 0.187 107 40 15 0 0
0.3103 2.8420 0.2092 -0.891 -0.360 0.275 112 45 18 0 0
0.3240 2.8054 0.2061 -0.694 -0.454 -0.560 124 49 18 0 0
0.3267 2.7941 0.2051 -0.593 -0.598 -0.539 126 52 18 0 0
0.3370 2.7485 0.2012 -0.548 -0.319 0.773 168 85 30 0 0
0.3386 2.7152 0.1983 -0.410 -0.289 0.865 190 107 34 0 0
0.8620 3.3060 0.2527 -0.083 -0.376 0.923 97 88 77 0 0
1.2353 3.0298 0.2308 -0.944 -0.198 -0.265 116 109 95 0 0
1.2375 3.0220 0.2302 -0.951 -0.234 -0.200 129 120 106 0 0
1.2586 3.0120 0.2294 -0.085 -0.895 -0.438 95 85 76 0 0
1.5086 3.3275 0.2583 0.216 -0.278 0.936 173 165 157 0 0
1.5009 3.3025 0.2561 0.219 -0.301 0.928 180 173 166 0 0
1.5416 3.3088 0.2568 0.292 -0.428 0.855 171 161 152 0 0
1.6340 3.3972 0.2651 -0.631 -0.731 0.260 161 155 148 0 0
1.7179 3.2299 0.2510 0.089 -0.362 0.928 168 164 155 0 0
1.7273 3.2331 0.2513 0.089 -0.362 0.928 171 167 157 0 0
-1.1060 1.9216 0.1172 -0.053 -0.846 -0.531 134 109 90 0 0
-1.1021 1.9214 0.1172 -0.053 -0.846 -0.531 134 109 86 0 0
-1.0983 1.9211 0.1172 -0.053 -0.846 -0.531 137 109 90 0 0
-1.0944 1.9209 0.1172 -0.053 -0.846 -0.531 137 108 91 0 0
-1.0865 1.9321 0.1182 0.769 -0.536 -0.349 180 162 146 0 0
-1.0833 1.9343 0.1184 0.658 -0.576 -0.485 182 166 150 0 0
-1.0928 2.1146 0.1336 0.794 -0.340 0.504 147 137 128 0 0
-1.0694 2.0761 0.1305 0.890 -0.414 0.190 116 104 90 0 0
-1.0940 2.2941 0.1488 0.872 -0.411 -0.267 83 69 60 0 0
-1.1034 2.5618 0.1715 0.331 -0.383 0.862 41 32 25 0 0
-1.1392 2.8040 0.1919 -0.056 -0.912 0.405 23 18 15 0 0
-1.1333 2.8026 0.1918 -0.083 -0.864 0.497 28 21 17 0 0
-1.1282 2.8047 0.1920 -0.606 -0.758 0.239 28 20 17 0 0
-1.1213 2.7991 0.1916 -0.606 -0.758 0.239 27 19 17 0 0
-1.1144 2.7933 0.1911 -0.616 -0.742 0.264 26 18 16 0 0
-1.1093 2.7955 0.1913 -0.591 -0.539 0.600 23 16 14 0 0
-1.1023 2.7891 0.1908 -0.149 -0.954 0.259 20 15 13 0 0
-1.0965 2.7882 0.1908 -0.149 -0.954 0.259 20 15 12 0 0
-1.0914 2.7904 0.1910 -0.005 -0.858 0.514 21 16 13 0 0
-1.0858 2.7904 0.1910 -0.005 -0.858 0.514 21 16 12 0 0
-1.0848 2.8123 0.1929 -0.653 -0.612 0.446 22 17 13 0 0
-1.0760 2.7973 0.1917 -0.537 -0.706 0.462 25 17 14 0 0
-0.6635 2.2291 0.1457 -0.272 -0.569 0.776 36 34 28 0 0
-0.6586 2.2246 0.1454 -0.217 -0.595 0.774 33 30 25 0 0
-0.6539 2.2227 0.1452 -0.217 -0.595 0.774 24 23 18 0 0
-0.6489 2.2160 0.1447 -0.177 -0.579 0.796 21 21 16 0 0
-0.6442 2.2148 0.1446 0.056 -0.572 0.818 21 20 16 0 0
-0.6399 2.2173 0.1449 0.591 -0.588 0.553 20 19 17 0 0
-0.6598 2.7565 0.1905 0.047 -0.882 0.468 18 17 15 0 0
-0.3656 2.4006 0.1620 -0.536 -0.597 0.597 86 72 62 0 0
-0.3609 2.3952 0.1615 -0.585 -0.551 0.595 74 59 47 0 0
-0.3562 2.3891 0.1610 -0.624 -0.543 0.562 68 52 40 0 0
-0.3517 2.3823 0.1605 -0.891 -0.419 0.174 69 53 40 0 0
-0.3473 2.3725 0.1597 -0.903 -0.411 0.127 70 54 41 0 0
-0.2443 3.1188 0.2236 -0.263 -0.742 0.616 145 133 119 0 0
-0.2730 2.3746 0.1603 -0.701 -0.707 -0.090 204 140 66 0 0
-0.2630 2.3758 0.1604 -0.097 -0.773 0.627 215 137 53 0 0
-0.2589 2.3662 0.1596 -0.083 -0.987 0.136 213 134 45 0 0
0.0285 2.8546 0.2027 -0.280 -0.282 -0.918 118 94 75 0 0
-0.0081 2.5635 0.1778 -0.869 -0.266 0.418 162 149 140 0 0
0.1646 2.9223 0.2092 -0.857 -0.426 -0.288 168 104 64 0 0
0.1698 2.9175 0.2088 -0.759 -0.436 0.483 124 72 46 0 0
0.1810 2.8859 0.2062 -0.273 -0.412 0.869 90 65 51 0 0
0.1845 2.8747 0.2053 -0.235 -0.560 0.795 81 62 51 0 0
0.1887 2.8663 0.2046 -0.264 -0.678 0.686 72 57 47 0 0
0.1927 2.8578 0.2039 -0.113 -0.964 0.239 67 54 45 0 0
0.2405 2.8540 0.2038 -0.604 -0.469 0.645 135 75 33 0 0
0.2690 2.8696 0.2053 0.122 -0.324 -0.938 202 119 38 0 0
0.2829 2.8757 0.2059 -0.079 -0.400 -0.913 197 115 37 0 0
0.2903 2.8803 0.2064 -0.368 -0.636 -0.678 193 110 35 0 0
0.3031 2.8600 0.2047 -0.911 -0.381 0.155 100 39 16 0 0
0.3062 2.8491 0.2038 -0.916 -0.331 0.228 100 38 14 0 0
0.3095 2.8391 0.2030 -0.891 -0.360 0.275 107 42 16 0 0
0.3143 2.8347 0.2026 -0.774 -0.505 0.382 112 45 18 0 0
0.3184 2.8279 0.2021 -0.788 -0.597 0.151 117 47 18 0 0
0.3232 2.8235 0.2017 -0.200 -0.870 0.450 119 47 18 0 0
0.3247 2.8079 0.2004 -0.583 -0.792 0.181 124 51 19 0 0
0.3333 2.7364 0.1944 -0.538 -0.295 0.789 163 82 29 0 0
0.2116 2.1767 0.1462 0.031 -0.991 -0.131 169 157 140 0 0
0.2170 2.1788 0.1464 -0.064 -0.825 0.561 172 163 146 0 0
1.2380 3.0228 0.2238 -0.916 -0.330 -0.230 120 111 99 0 0
1.5008 3.2780 0.2469 0.248 -0.310 0.918 170 163 154 0 0
1.7183 3.1989 0.2414 -0.052 -0.240 0.969 167 163 154 0 0
-1.1032 1.9248 0.1135 -0.127 -0.799 -0.588 143 121 98 0 0
-1.0986 1.9222 0.1134 0.132 -0.859 -0.495 140 116 96 0 0
-1.0866 1.9325 0.1143 0.743 -0.464 -0.482 179 164 148 0 0
-1.0924 2.1132 0.1292 0.772 -0.376 0.513 148 138 128 0 0
-1.0922 2.1272 0.1304 0.762 -0.546 -0.350 147 137 128 0 0
-1.0891 2.1312 0.1307 0.762 -0.546 -0.350 144 134 124 0 0
-1.0695 2.0764 0.1263 0.813 -0.434 0.389 115 103 92 0 0
-1.0891 2.1930 0.1358 0.911 -0.204 0.359 129 114 105 0 0
-1.0945 2.2960 0.1443 0.872 -0.411 -0.267 80 66 60 0 0
-1.0980 2.5603 0.1662 0.559 -0.341 0.756 27 19 16 0 0
-1.0975 2.7677 0.1834 -0.204 -0.330 -0.922 20 16 13 0 0
-0.7799 2.7762 0.1858 0.244 -0.259 0.935 16 15 13 0 0
-0.7743 2.7758 0.1858 0.159 -0.267 0.951 16 15 13 0 0
-0.6727 2.2306 0.1412 -0.506 -0.558 0.658 25 24 21 0 0
-0.6677 2.2254 0.1408 -0.423 -0.554 0.717 26 24 20 0 0
-0.6629 2.2218 0.1405 -0.375 -0.555 0.743 23 22 18 0 0
-0.6580 2.2177 0.1402 -0.217 -0.595 0.774 23 21 17 0 0
-0.6534 2.2158 0.1401 -0.217 -0.595 0.774 22 21 17 0 0
-0.6485 2.2111 0.1397 -0.101 -0.592 0.800 20 19 15 0 0
-0.6439 2.2103 0.1397 -0.101 -0.592 0.800 19 18 15 0 0
-0.6394 2.2094 0.1397 -0.218 -0.905 0.367 19 18 16 0 0
-0.6595 2.7524 0.1845 0.163 -0.814 0.557 18 17 15 0 0
-0.6428 2.7553 0.1848 0.391 -0.640 0.662 74 70 66 0 0
-0.6373 2.7572 0.1850 0.201 -0.707 0.678 61 56 50 0 0
-0.5944 2.8198 0.1904 -0.751 -0.387 -0.535 22 19 15 0 0
-0.5882 2.8094 0.1896 -0.706 -0.402 -0.582 18 17 14 0 0
-0.5821 2.7998 0.1889 -0.706 -0.402 -0.582 19 18 16 0 0
-0.5759 2.7862 0.1878 -0.706 -0.411 -0.577 20 19 17 0 0
-0.5627 2.7187 0.1822 -0.352 -0.733 -0.582 20 19 17 0 0
-0.2446 3.1139 0.2167 -0.245 -0.796 0.554 143 131 117 0 0
-0.2729 2.3751 0.1554 -0.701 -0.707 -0.090 121 103 84 0 0
-0.2685 2.3692 0.1549 -0.541 -0.824 -0.166 157 126 91 0 0
-0.2638 2.3671 0.1548 -0.409 -0.910 -0.064 200 146 99 0 0
-0.2591 2.3643 0.1546 -0.407 -0.867 -0.287 209 135 59 0 0
-0.2544 2.3622 0.1544 -0.067 -0.858 -0.509 214 139 48 0 0
-0.2262 2.1480 0.1368 0.159 -0.365 -0.917 186 175 144 0 0
0.1688 2.9133 0.2024 -0.526 -0.183 0.830 115 73 55 0 0
0.1732 2.9055 0.2017 -0.426 -0.249 0.870 106 69 53 0 0
0.1836 2.8705 0.1989 -0.072 -0.442 0.894 75 58 50 0 0
0.1888 2.8669 0.1986 -0.074 -0.526 0.847 65 50 41 0 0
0.1947 2.8661 0.1986 -0.153 -0.485 0.861 60 43 33 0 0
0.1995 2.8608 0.1982 -0.241 -0.497 0.833 60 42 29 0 0
0.2049 2.8578 0.1980 -0.241 -0.497 0.833 63 40 30 0 0
0.2098 2.8529 0.1976 -0.419 -0.502 0.756 79 41 32 0 0
0.2153 2.8506 0.1974 -0.406 -0.633 0.659 112 61 38 0 0
0.2217 2.8519 0.1976 -0.348 -0.766 0.540 154 91 43 0 0
0.2453 2.8729 0.1994 0.185 -0.301 -0.936 209 128 46 0 0
0.2523 2.8762 0.1997 0.185 -0.301 -0.936 208 125 41 0 0
0.2593 2.8795 0.2001 0.185 -0.301 -0.936 205 123 39 0 0
0.2661 2.8818 0.2003 0.131 -0.320 -0.938 204 122 39 0 0
0.2798 2.8872 0.2008 0.013 -0.368 -0.930 201 120 42 0 0
0.2915 2.8849 0.2007 -0.682 -0.657 -0.322 146 73 23 0 0
0.2961 2.8790 0.2002 -0.829 -0.550 -0.106 107 41 15 0 0
0.2996 2.8695 0.1994 -0.881 -0.469 -0.063 98 40 17 0 0
0.3027 2.8585 0.1986 -0.921 -0.362 0.147 98 40 17 0 0
0.3058 2.8477 0.1977 -0.950 -0.260 0.173 97 38 15 0 0
0.3100 2.8411 0.1972 -0.888 -0.457 0.048 101 39 15 0 0
0.3156 2.8395 0.1970 -0.669 -0.661 0.341 111 45 18 0 0
0.3223 2.7789 0.1921 -0.832 -0.412 0.371 156 116 86 0 0
0.3429 2.6729 0.1834 0.409 -0.492 0.769 208 128 42 0 0
0.2125 2.1795 0.1418 -0.455 -0.626 -0.633 168 158 142 0 0
0.2160 2.1756 0.1415 -0.064 -0.825 0.561 181 171 152 0 0
0.5665 2.7440 0.1905 -0.807 -0.121 -0.578 65 59 48 0 0
0.7781 2.2900 0.1541 0.500 -0.858 0.119 144 140 130 0 0
0.7868 2.2965 0.1546 0.391 -0.870 -0.300 141 135 122 0 0
0.7932 2.2989 0.1549 0.411 -0.838 -0.358 130 125 108 0 0
1.2402 3.0266 0.2176 -0.944 -0.243 -0.224 115 107 96 0 0
-1.1106 1.9242 0.1096 0.619 -0.653 -0.437 151 133 111 0 0
-1.1042 1.9277 0.1099 -0.127 -0.799 -0.588 150 129 105 0 0
-1.1000 1.9267 0.1098 -0.149 -0.723 -0.675 134 111 91 0 0
-1.0921 1.9258 0.1098 -0.055 -0.665 -0.745 97 76 53 0 0
-1.0870 1.9337 0.1105 0.763 -0.388 -0.516 172 156 140 0 0
-1.0912 2.1092 0.1246 0.772 -0.376 0.513 150 140 130 0 0
-1.0925 2.1285 0.1262 0.775 -0.599 -0.202 145 134 125 0 0
-1.0893 2.1319 0.1265 0.806 -0.561 -0.187 142 130 121 0 0
-1.0858 2.1971 0.1317 0.884 -0.212 0.416 126 111 103 0 0
-1.3543 3.4076 0.2281 -0.320 -0.542 0.777 86 75 64 0 0
-1.3431 3.3900 0.2267 -0.225 -0.586 0.778 91 80 70 0 0
-0.7150 2.8131 0.1834 0.822 -0.482 -0.302 23 19 18 0 0
-0.7095 2.8159 0.1837 0.922 -0.349 -0.170 21 20 18 0 0
-0.7035 2.8120 0.1834 0.883 -0.470 -0.003 18 18 16 0 0
-0.6369 2.7514 0.1789 0.201 -0.707 0.678 53 49 45 0 0
-0.6312 2.7487 0.1787 -0.394 -0.801 0.450 113 110 104 0 0
-0.6257 2.7529 0.1791 -0.135 -0.911 0.389 68 65 58 0 0
-0.6201 2.7521 0.1790 -0.135 -0.911 0.389 67 64 58 0 0
-0.5798 2.7316 0.1776 -0.614 -0.766 -0.190 19 18 16 0 0
-0.5740 2.7243 0.1770 -0.598 -0.764 -0.241 19 18 16 0 0
-0.5683 2.7200 0.1767 -0.624 -0.764 -0.165 19 18 16 0 0
-0.5626 2.7154 0.1764 -0.624 -0.764 -0.165 17 16 14 0 0
-0.4323 2.5296 0.1621 -0.459 -0.888 0.007 27 25 20 0 0
-0.4273 2.5208 0.1614 -0.596 -0.773 -0.217 28 25 21 0 0
-0.4224 2.5112 0.1606 -0.445 -0.859 -0.252 31 27 24 0 0
-0.2861 2.8100 0.1855 -0.513 -0.313 0.799 121 108 96 0 0
-0.2729 2.3757 0.1505 -0.701 -0.707 -0.090 101 88 80 0 0
-0.2684 2.3705 0.1501 -0.646 -0.735 -0.203 96 83 74 0 0
-0.2637 2.3675 0.1499 -0.409 -0.910 -0.064 113 98 89 0 0
-0.2590 2.3657 0.1497 -0.377 -0.881 -0.287 189 171 153 0 0
-0.2543 2.3634 0.1496 -0.007 -0.945 -0.326 206 164 112 0 0
-0.2202 2.1603 0.1334 -0.583 -0.810 0.063 174 166 141 0 0
0.0911 2.8958 0.1944 0.588 -0.806 0.071 95 58 40 0 0
0.1654 2.8980 0.1950 -0.512 -0.252 0.821 107 72 55 0 0
0.1689 2.8864 0.1941 -0.432 -0.272 0.860 98 69 55 0 0
0.1722 2.8743 0.1931 -0.330 -0.289 0.899 88 66 55 0 0
0.1759 2.8640 0.1923 -0.298 -0.380 0.876 65 46 42 0 0
0.1808 2.8588 0.1919 -0.257 -0.511 0.820 57 36 35 0 0
0.1862 2.8559 0.1917 -0.274 -0.510 0.815 60 37 29 0 0
0.1914 2.8524 0.1915 -0.184 -0.583 0.792 71 45 36 0 0
0.1974 2.8518 0.1914 -0.148 -0.620 0.771 106 63 54 0 0
0.2106 2.8562 0.1919 0.182 -0.950 0.254 200 127 67 0 0
0.2427 2.8868 0.1945 0.060 -0.238 -0.969 213 132 50 0 0
0.2509 2.8947 0.1952 0.071 -0.291 -0.954 213 132 48 0 0
0.2575 2.8964 0.1954 0.099 -0.324 -0.941 209 128 44 0 0
0.2641 2.8980 0.1955 0.099 -0.324 -0.941 207 125 41 0 0
0.2707 2.8995 0.1957 0.017 -0.368 -0.930 205 122 40 0 0
0.2767 2.8989 0.1957 0.022 -0.397 -0.918 199 113 37 0 0
0.2824 2.8970 0.1955 -0.130 -0.474 -0.871 168 90 32 0 0
0.2882 2.8956 0.1955 -0.321 -0.556 -0.766 116 51 16 0 0
0.2990 2.8672 0.1932 -0.882 -0.328 0.340 98 41 18 0 0
0.3026 2.8580 0.1925 -0.922 -0.322 0.215 95 39 16 0 0
0.3102 2.8418 0.1912 -0.875 -0.418 -0.246 100 39 16 0 0
0.3210 2.7744 0.1858 -0.718 -0.589 0.370 93 68 51 0 0
0.3418 2.6695 0.1775 0.125 -0.503 0.855 207 126 44 0 0
0.3464 2.6657 0.1772 0.419 -0.494 0.762 212 133 52 0 0
0.2125 2.1792 0.1372 -0.182 -0.681 -0.710 86 79 70 0 0
0.5599 2.7737 0.1871 -0.750 -0.251 -0.612 73 63 59 0 0
0.6601 2.8736 0.1957 -0.388 -0.147 0.910 95 86 78 0 0
0.6654 2.8714 0.1955 -0.470 -0.167 0.867 98 89 79 0 0
0.6683 2.8631 0.1949 -0.361 -0.221 0.906 103 96 83 0 0
0.6758 2.8663 0.1951 -0.086 -0.324 0.942 110 102 89 0 0
0.6868 2.8625 0.1949 -0.114 -0.307 0.945 129 120 112 0 0
0.7413 2.9638 0.2034 -0.914 -0.107 0.391 148 137 131 0 0
0.7801 2.4816 0.1646 -0.875 -0.030 -0.483 135 135 130 0 0
1.2415 3.0289 0.2113 -0.889 -0.352 -0.293 126 119 106 0 0
1.5074 3.2296 0.2289 0.292 -0.428 0.855 182 174 164 0 0
1.5385 3.2563 0.2312 0.305 -0.417 0.856 188 181 173 0 0
-1.2640 2.0705 0.1164 -0.851 -0.471 -0.234 36 30 22 0 0
-1.1077 1.9268 0.1059 0.271 -0.915 -0.300 151 130 106 0 0
-1.0934 1.9299 0.1062 -0.055 -0.665 -0.745 138 113 91 0 0
-1.0909 1.9340 0.1065 0.675 -0.407 -0.616 138 112 95 0 0
-1.0879 1.9368 0.1068 0.763 -0.388 -0.516 155 132 116 0 0
-1.0890 2.1015 0.1197 0.916 -0.308 0.257 148 139 129 0 0
-1.0902 2.1205 0.1212 0.934 -0.358 0.008 146 133 125 0 0
-1.0870 2.1238 0.1215 0.908 -0.379 0.181 141 126 118 0 0
-1.0824 2.1685 0.1250 0.133 -0.371 0.919 138 124 114 0 0
-1.0751 2.1736 0.1255 0.119 -0.451 0.885 114 99 88 0 0
-1.3509 3.3941 0.2201 -0.320 -0.542 0.777 92 82 70 0 0
-1.1080 2.5182 0.1524 0.462 -0.428 0.777 91 81 70 0 0
-1.1022 2.5147 0.1522 0.506 -0.379 0.775 89 79 67 0 0
-1.0872 2.5363 0.1540 0.154 -0.453 0.878 31 25 22 0 0
-0.7793 2.8250 0.1783 -0.276 -0.910 0.309 15 14 12 0 0
-0.7752 2.8415 0.1796 0.602 -0.570 0.560 15 14 12 0 0
-0.7677 2.8237 0.1782 0.383 -0.910 0.160 15 14 12 0 0
-0.7626 2.8309 0.1788 0.428 -0.900 0.078 15 14 12 0 0
-0.7556 2.8178 0.1778 -0.130 -0.740 -0.660 16 15 14 0 0
-0.7497 2.8162 0.1777 0.333 -0.943 0.024 19 16 15 0 0
-0.7440 2.8165 0.1778 -0.192 -0.874 -0.445 20 16 15 0 0
-0.7379 2.8120 0.1775 -0.593 -0.600 -0.538 20 17 16 0 0
-0.7315 2.8049 0.1769 -0.593 -0.554 -0.584 20 17 15 0 0
-0.7255 2.8005 0.1766 -0.593 -0.600 -0.538 21 17 16 0 0
-0.7203 2.8068 0.1771 -0.165 -0.598 -0.784 19 16 15 0 0
-0.7156 2.8202 0.1782 0.840 -0.371 -0.396 19 17 15 0 0
-0.7035 2.8122 0.1777 0.842 -0.532 0.094 17 16 15 0 0
-0.6738 2.7977 0.1767 -0.448 -0.355 -0.821 17 16 14 0 0
-0.6257 2.7525 0.1734 -0.104 -0.978 0.178 63 59 54 0 0
-0.6199 2.7496 0.1732 0.134 -0.967 0.217 55 51 47 0 0
-0.6039 2.7705 0.1749 0.431 -0.455 -0.779 19 18 16 0 0
-0.5797 2.7286 0.1717 -0.739 -0.665 -0.109 18 17 15 0 0
-0.5740 2.7231 0.1713 -0.672 -0.730 -0.126 18 17 15 0 0
-0.5683 2.7210 0.1712 -0.522 -0.803 -0.289 17 16 14 0 0
-0.5625 2.7141 0.1707 -0.311 -0.946 0.090 18 17 15 0 0
-0.5568 2.7092 0.1703 -0.041 -0.999 0.030 16 15 13 0 0
-0.4172 2.5099 0.1554 -0.749 -0.655 -0.094 24 20 17 0 0
-0.4122 2.5042 0.1549 -0.749 -0.655 -0.094 25 21 18 0 0
-0.4073 2.4937 0.1541 -0.440 -0.716 0.541 28 24 20 0 0
-0.4023 2.4894 0.1538 -0.417 -0.612 0.672 35 31 28 0 0
-0.3974 2.4833 0.1534 -0.463 -0.544 0.700 46 42 39 0 0
-0.3925 2.4774 0.1529 -0.646 -0.501 0.577 62 58 55 0 0
-0.2201 2.1609 0.1289 -0.606 -0.720 0.337 172 160 133 0 0
-0.2174 2.1466 0.1278 0.419 -0.817 0.395 170 160 135 0 0
-0.2128 2.1473 0.1279 0.277 -0.774 0.570 156 142 117 0 0
-0.2089 2.1433 0.1276 0.193 -0.649 0.736 129 110 82 0 0
0.1616 2.8815 0.1876 -0.512 -0.252 0.821 108 73 55 0 0
0.1848 2.8501 0.1852 -0.247 -0.896 0.370 107 58 29 0 0
0.1905 2.8483 0.1851 0.137 -0.991 -0.004 174 111 55 0 0
0.2036 2.8776 0.1875 0.354 -0.302 -0.885 213 143 70 0 0
0.2265 2.8960 0.1891 0.197 -0.217 -0.956 216 136 54 0 0
0.2337 2.8998 0.1894 0.190 -0.237 -0.953 215 134 50 0 0
0.2412 2.9051 0.1899 0.021 -0.230 -0.973 214 133 50 0 0
0.2476 2.9060 0.1900 0.041 -0.240 -0.970 213 132 49 0 0
0.2552 2.9114 0.1904 0.071 -0.291 -0.954 213 134 50 0 0
0.2615 2.9120 0.1905 0.094 -0.352 -0.931 210 127 45 0 0
0.2680 2.9129 0.1906 0.024 -0.427 -0.904 202 120 41 0 0
0.2735 2.9102 0.1904 -0.171 -0.504 -0.847 174 94 34 0 0
0.2799 2.9110 0.1905 -0.839 -0.464 0.284 130 58 23 0 0
0.2841 2.9032 0.1899 -0.839 -0.464 0.284 97 37 15 0 0
0.2877 2.8938 0.1892 -0.835 -0.362 0.415 91 37 16 0 0
0.2911 2.8833 0.1884 -0.833 -0.339 0.438 93 38 16 0 0
0.2945 2.8733 0.1876 -0.882 -0.315 0.351 96 40 17 0 0
0.2983 2.8647 0.1870 -0.927 -0.290 0.239 96 40 17 0 0
0.3016 2.8545 0.1862 -0.939 -0.283 0.194 97 40 17 0 0
0.3163 2.7788 0.1803 -0.945 -0.326 0.013 100 59 39 0 0
0.3378 2.6564 0.1708 0.171 -0.530 0.830 208 128 49 0 0
0.2130 2.1809 0.1327 -0.351 -0.473 -0.808 58 50 42 0 0
0.2142 2.1701 0.1319 -0.325 -0.715 0.619 107 98 88 0 0
0.5492 2.7935 0.1827 -0.803 -0.562 -0.198 82 75 65 0 0
0.5574 2.7832 0.1819 -0.692 -0.365 -0.624 79 70 60 0 0
0.6331 2.8061 0.1841 -0.261 -0.926 0.273 186 182 181 0 0
0.6733 2.8601 0.1886 -0.022 -0.325 0.945 216 212 214 0 0
0.6741 2.8468 0.1875 0.117 -0.884 -0.453 223 221 221 0 0
0.6793 2.8444 0.1874 -0.620 -0.404 -0.673 226 224 224 0 0
0.6792 2.8292 0.1862 -0.933 -0.345 -0.108 227 225 226 0 0
0.7283 2.9324 0.1945 -0.511 -0.327 0.795 231 228 228 0 0
0.7339 2.9306 0.1944 -0.865 -0.175 0.470 226 223 225 0 0
0.9464 2.6792 0.1758 -0.903 -0.027 -0.428 151 151 141 0 0
1.2426 3.0308 0.2049 -0.927 -0.242 -0.287 140 132 119 0 0
1.2726 3.0246 0.2046 -0.831 -0.207 -0.516 99 90 84 0 0
1.5024 3.2098 0.2204 0.335 -0.451 0.827 157 151 139 0 0
1.5274 3.2269 0.2219 0.197 -0.456 0.868 163 156 146 0 0
-1.1081 1.9282 0.1021 0.386 -0.897 -0.216 155 134 109 0 0
-1.0980 1.9323 0.1025 -0.063 -0.765 -0.641 158 137 110 0 0
-1.0941 1.9320 0.1025 -0.063 -0.765 -0.641 145 119 95 0 0
-1.0916 1.9362 0.1028 0.736 -0.425 -0.527 153 128 106 0 0
-1.0889 1.9398 0.1031 0.780 -0.398 -0.482 165 140 121 0 0
-1.0725 1.9620 0.1049 0.722 -0.452 -0.524 157 137 115 0 0
-1.0884 2.0993 0.1153 0.928 -0.303 0.215 146 137 127 0 0
-1.0903 2.1206 0.1169 0.928 -0.372 -0.013 145 133 125 0 0
-1.0856 2.1189 0.1168 0.941 -0.273 0.199 141 125 118 0 0
-1.1019 2.5138 0.1470 0.263 -0.486 0.833 82 69 59 0 0
-0.7747 2.8360 0.1733 0.602 -0.570 0.560 14 13 11 0 0
-0.7680 2.8266 0.1727 0.431 -0.644 -0.632 15 14 12 0 0
-0.7622 2.8258 0.1726 0.387 -0.722 -0.574 16 15 13 0 0
-0.7497 2.8160 0.1719 0.156 -0.706 -0.691 16 15 13 0 0
-0.7441 2.8171 0.1720 -0.038 -0.721 -0.692 18 17 15 0 0
-0.7383 2.8167 0.1720 -0.038 -0.721 -0.692 19 18 16 0 0
-0.7270 2.8183 0.1722 -0.078 -0.704 -0.706 18 17 15 0 0
-0.7221 2.8291 0.1731 0.642 -0.741 -0.197 17 16 14 0 0
-0.7161 2.8261 0.1729 0.714 -0.593 -0.373 16 15 13 0 0
-0.7059 2.8433 0.1742 0.200 -0.640 -0.742 16 15 13 0 0
-0.6199 2.7483 0.1674 0.134 -0.967 0.217 25 23 21 0 0
-0.6100 2.7804 0.1699 0.115 -0.379 -0.918 17 16 14 0 0
-0.5918 2.7524 0.1679 -0.217 -0.337 -0.916 18 17 15 0 0
-0.5797 2.7286 0.1661 -0.533 -0.749 -0.394 17 16 14 0 0
-0.5741 2.7280 0.1661 -0.572 -0.777 -0.263 18 17 15 0 0
-0.5684 2.7230 0.1657 -0.522 -0.803 -0.289 16 15 13 0 0
-0.5625 2.7136 0.1650 -0.311 -0.946 0.090 16 15 13 0 0
-0.4076 2.4868 0.1484 -0.430 -0.691 0.581 24 20 17 0 0
-0.4027 2.4791 0.1479 -0.302 -0.528 0.794 26 22 19 0 0
-0.3977 2.4741 0.1475 -0.363 -0.513 0.778 26 22 19 0 0
-0.3926 2.4728 0.1474 -0.265 -0.465 0.845 28 23 19 0 0
-0.3876 2.4718 0.1474 -0.267 -0.503 0.822 32 27 22 0 0
-0.3825 2.4710 0.1474 -0.176 -0.798 0.576 44 37 31 0 0
-0.3775 2.4666 0.1470 -0.377 -0.853 0.361 49 43 39 0 0
-0.3727 2.4601 0.1466 -0.488 -0.870 0.069 40 34 29 0 0
-0.3678 2.4563 0.1463 -0.525 -0.851 -0.016 39 30 23 0 0
-0.2133 2.1436 0.1231 0.277 -0.774 0.570 170 160 133 0 0
-0.2096 2.1375 0.1227 0.193 -0.649 0.736 174 162 134 0 0
0.1667 2.8504 0.1792 0.438 -0.860 -0.261 74 45 39 0 0
0.1725 2.8491 0.1791 0.066 -0.932 0.357 100 55 34 0 0
0.1796 2.8535 0.1795 -0.377 -0.748 0.546 179 107 36 0 0
0.2167 2.9062 0.1837 0.257 -0.194 -0.947 215 139 45 0 0
0.2325 2.9201 0.1849 0.197 -0.217 -0.956 216 135 51 0 0
0.2390 2.9213 0.1850 0.170 -0.240 -0.956 214 134 48 0 0
0.2461 2.9248 0.1853 -0.015 -0.245 -0.969 215 133 46 0 0
0.2523 2.9245 0.1853 0.014 -0.274 -0.962 212 131 49 0 0
0.2660 2.9292 0.1857 -0.805 -0.579 0.129 163 88 41 0 0
0.2705 2.9224 0.1852 -0.809 -0.558 0.184 121 54 18 0 0
0.2747 2.9148 0.1847 -0.749 -0.471 0.467 93 39 14 0 0
0.2787 2.9065 0.1841 -0.807 -0.397 0.438 87 36 16 0 0
0.2826 2.8979 0.1834 -0.807 -0.397 0.438 87 36 16 0 0
0.2865 2.8892 0.1828 -0.835 -0.362 0.415 89 37 17 0 0
0.2902 2.8799 0.1821 -0.835 -0.362 0.415 90 38 17 0 0
0.2942 2.8723 0.1815 -0.907 -0.339 0.250 93 39 16 0 0
0.2975 2.8620 0.1807 -0.927 -0.290 0.239 96 40 18 0 0
0.3009 2.8520 0.1800 -0.945 -0.275 0.179 99 41 19 0 0
0.3277 2.6424 0.1641 0.187 -0.537 0.823 195 111 41 0 0
0.3410 2.6484 0.1646 0.120 -0.542 0.832 214 142 74 0 0
0.5513 2.7830 0.1760 -0.430 -0.895 0.115 138 131 125 0 0
0.6740 2.8465 0.1815 0.195 -0.823 0.533 165 157 149 0 0
0.6787 2.8429 0.1812 -0.489 -0.850 0.197 158 148 138 0 0
1.2235 3.0209 0.1976 -0.119 -0.917 0.381 140 134 118 0 0
1.2484 3.0529 0.2002 0.597 -0.610 0.521 142 135 120 0 0
1.2512 3.0225 0.1979 -0.155 -0.988 -0.009 127 118 104 0 0
1.2549 3.0173 0.1975 -0.264 -0.841 0.473 147 138 126 0 0
1.2727 3.0248 0.1981 0.482 -0.873 -0.071 106 98 91 0 0
1.4778 3.1818 0.2112 0.272 -0.474 0.838 121 115 103 0 0
1.5023 3.1982 0.2126 0.271 -0.476 0.837 100 94 85 0 0
1.5277 3.2159 0.2141 0.270 -0.429 0.862 175 167 156 0 0
1.5305 3.1863 0.2118 -0.377 -0.559 0.739 151 143 132 0 0
-1.1248 1.8984 0.0959 0.952 -0.251 -0.174 74 62 46 0 0
-1.1084 1.9290 0.0983 0.386 -0.897 -0.216 155 136 115 0 0
-1.1058 1.9327 0.0986 -0.139 -0.983 -0.118 154 134 105 0 0
-1.1020 1.9329 0.0986 -0.343 -0.906 -0.250 155 134 102 0 0
-1.0983 1.9334 0.0986 -0.186 -0.848 -0.496 161 139 112 0 0
-1.0951 1.9352 0.0988 -0.133 -0.820 -0.557 162 140 112 0 0
-1.0909 1.9341 0.0987 0.750 -0.654 -0.093 169 149 124 0 0
-1.0879 1.9368 0.0989 0.862 -0.471 -0.188 170 151 128 0 0
-1.0730 1.9640 0.1010 0.756 -0.453 -0.472 170 152 136 0 0
-1.0903 2.1060 0.1115 0.921 -0.389 0.007 146 135 124 0 0
-1.0902 2.1202 0.1126 -0.008 -0.999 0.044 150 136 128 0 0
-1.0851 2.1173 0.1124 0.941 -0.273 0.199 133 117 110 0 0
-1.0882 2.1430 0.1143 -0.088 -0.299 0.950 111 91 79 0 0
-1.0562 2.1510 0.1151 -0.267 -0.628 0.731 126 116 106 0 0
-0.7690 2.8366 0.1676 0.249 -0.794 -0.554 15 14 12 0 0
-0.7626 2.8301 0.1671 0.510 -0.589 -0.627 15 14 12 0 0
-0.7567 2.8294 0.1671 0.011 -0.520 -0.854 15 14 12 0 0
-0.7505 2.8246 0.1668 0.010 -0.670 -0.742 16 15 13 0 0
-0.7446 2.8233 0.1667 -0.200 -0.704 -0.682 18 17 15 0 0
-0.7388 2.8218 0.1666 -0.212 -0.789 -0.576 19 18 16 0 0
-0.7275 2.8242 0.1669 -0.039 -0.622 -0.782 18 17 15 0 0
-0.7216 2.8232 0.1668 0.056 -0.681 -0.731 16 15 13 0 0
-0.7051 2.8332 0.1676 0.664 -0.425 -0.615 15 14 12 0 0
-0.6928 2.8228 0.1669 0.093 -0.549 -0.831 16 15 13 0 0
-0.6540 2.7546 0.1620 -0.240 -0.970 -0.036 18 17 15 0 0
-0.6307 2.7390 0.1610 -0.300 -0.787 0.539 16 15 13 0 0
-0.6252 2.7425 0.1613 0.010 -0.858 0.514 15 14 12 0 0
-0.5922 2.7632 0.1630 -0.358 -0.259 -0.897 17 16 14 0 0
-0.5743 2.7341 0.1609 -0.381 -0.677 -0.629 16 15 13 0 0
-0.5683 2.7222 0.1600 -0.369 -0.879 -0.302 17 16 14 0 0
-0.5625 2.7130 0.1594 -0.311 -0.946 0.090 16 15 13 0 0
-0.3826 2.4673 0.1420 -0.322 -0.816 0.480 29 21 16 0 0
-0.3776 2.4644 0.1418 -0.377 -0.853 0.361 42 33 30 0 0
-0.3726 2.4617 0.1416 -0.548 -0.836 -0.031 60 44 37 0 0
-0.3679 2.4544 0.1411 -0.581 -0.705 -0.406 114 88 76 0 0
-0.3630 2.4503 0.1408 -0.610 -0.651 -0.451 98 73 62 0 0
-0.3582 2.4452 0.1404 -0.796 -0.550 -0.251 63 39 27 0 0
-0.3350 2.4105 0.1380 -0.907 -0.418 -0.053 54 43 38 0 0
-0.2103 2.1321 0.1178 0.297 -0.739 0.605 166 156 133 0 0
-0.2065 2.1273 0.1175 0.340 -0.603 0.722 161 153 131 0 0
-0.2036 2.1153 0.1166 -0.836 -0.534 0.129 165 158 138 0 0
-0.1999 2.1100 0.1162 -0.890 -0.447 0.092 173 164 146 0 0
0.1515 2.8634 0.1741 -0.534 -0.197 0.822 117 100 90 0 0
0.2480 2.9571 0.1816 -0.863 -0.425 -0.273 197 119 44 0 0
0.2527 2.9511 0.1811 -0.873 -0.486 0.034 163 90 28 0 0
0.2572 2.9440 0.1806 -0.781 -0.437 0.446 128 62 20 0 0
0.2611 2.9347 0.1800 -0.726 -0.332 0.602 95 40 14 0 0
0.2647 2.9244 0.1792 -0.733 -0.343 0.588 92 39 22 0 0
0.2686 2.9151 0.1785 -0.733 -0.343 0.588 88 38 19 0 0
0.2733 2.9095 0.1781 -0.772 -0.434 0.464 83 36 14 0 0
0.2774 2.9015 0.1776 -0.776 -0.451 0.441 85 37 15 0 0
0.2815 2.8937 0.1770 -0.841 -0.395 0.370 87 37 16 0 0
0.2853 2.8846 0.1763 -0.835 -0.362 0.415 89 37 16 0 0
0.2889 2.8753 0.1757 -0.869 -0.298 0.394 90 39 17 0 0
0.2920 2.8643 0.1749 -0.899 -0.274 0.342 96 41 18 0 0
0.3118 2.6275 0.1573 0.179 -0.511 0.841 162 83 31 0 0
0.3274 2.6232 0.1571 0.549 -0.559 0.621 212 144 80 0 0
0.3359 2.6323 0.1578 0.558 -0.564 0.609 216 146 83 0 0
0.5135 2.7783 0.1695 0.082 -0.228 -0.970 174 172 169 0 0
0.5343 2.7857 0.1702 -0.321 -0.461 -0.828 213 210 210 0 0
0.5402 2.7856 0.1702 -0.553 -0.605 -0.573 220 216 217 0 0
0.5591 2.7876 0.1705 -0.225 -0.801 -0.554 236 235 235 0 0
0.6672 2.8451 0.1753 -0.605 -0.693 0.391 119 96 85 0 0
0.6725 2.8429 0.1751 -0.487 -0.856 0.173 114 91 77 0 0
0.6775 2.8400 0.1749 -0.487 -0.856 0.173 108 85 70 0 0
1.2517 3.0234 0.1914 -0.134 -0.984 0.120 123 114 99 0 0
1.2522 3.0126 0.1906 -0.245 -0.737 0.630 140 129 117 0 0
1.5263 3.1796 0.2044 -0.326 -0.578 0.748 145 136 125 0 0
1.5310 3.1757 0.2042 -0.436 -0.544 0.717 162 154 143 0 0
1.7192 3.3418 0.2175 -0.131 -0.257 0.958 181 175 164 0 0
-1.1060 1.9336 0.0947 -0.051 -0.997 -0.063 149 127 97 0 0
-1.1024 1.9341 0.0948 -0.128 -0.986 -0.103 132 107 76 0 0
-1.0984 1.9336 0.0947 -0.128 -0.986 -0.103 146 122 93 0 0
-1.0953 1.9358 0.0949 0.048 -0.988 -0.146 157 133 105 0 0
-1.0907 1.9335 0.0948 0.697 -0.705 0.131 157 133 110 0 0
-1.0880 1.9371 0.0950 0.807 -0.590 0.021 170 153 133 0 0
-1.0735 1.9654 0.0972 0.804 -0.493 -0.333 174 157 141 0 0
-1.0903 2.1058 0.1073 0.934 -0.339 -0.114 138 124 115 0 0
-1.0882 2.1134 0.1078 0.406 -0.583 -0.704 146 133 122 0 0
-1.0838 2.1124 0.1078 0.787 -0.197 0.585 126 111 101 0 0
-1.0637 2.1473 0.1104 0.099 -0.482 0.871 113 100 84 0 0
-1.0534 2.1406 0.1100 -0.002 -0.706 0.709 127 118 107 0 0
-1.0658 2.3853 0.1276 -0.040 -0.767 -0.640 87 76 69 0 0
-1.0601 2.3814 0.1274 -0.137 -0.724 -0.676 94 84 74 0 0
-1.0551 2.3804 0.1273 0.031 -0.580 -0.814 92 83 74 0 0
-1.0639 2.4796 0.1345 -0.107 -0.228 0.968 36 28 23 0 0
-0.7631 2.8351 0.1617 0.322 -0.667 -0.672 14 13 11 0 0
-0.7573 2.8357 0.1617 0.052 -0.620 -0.783 15 14 12 0 0
-0.7505 2.8245 0.1610 0.360 -0.880 -0.310 16 15 13 0 0
-0.7451 2.8286 0.1613 -0.200 -0.704 -0.682 16 15 13 0 0
-0.7391 2.8261 0.1611 -0.352 -0.798 -0.489 17 16 14 0 0
-0.7279 2.8294 0.1614 -0.186 -0.759 -0.624 16 15 13 0 0
-0.7221 2.8290 0.1614 0.056 -0.681 -0.731 15 14 12 0 0
-0.6540 2.7547 0.1564 -0.169 -0.973 -0.155 17 16 14 0 0
-0.6359 2.7319 0.1548 0.067 -0.753 0.655 16 15 13 0 0
-0.5989 2.7882 0.1591 -0.200 -0.352 -0.914 16 15 13 0 0
-0.5924 2.7663 0.1575 -0.541 -0.287 -0.790 16 15 13 0 0
-0.3828 2.4642 0.1366 -0.322 -0.816 0.480 29 21 17 0 0
-0.3777 2.4623 0.1365 -0.377 -0.853 0.361 32 22 20 0 0
-0.3726 2.4619 0.1365 -0.548 -0.836 -0.031 43 29 24 0 0
-0.3678 2.4571 0.1362 -0.581 -0.705 -0.406 93 68 55 0 0
-0.3628 2.4541 0.1360 -0.739 -0.615 -0.274 191 154 124 0 0
-0.3580 2.4481 0.1356 -0.595 -0.565 -0.572 213 166 120 0 0
-0.1847 2.8810 0.1678 0.001 -0.528 0.849 156 110 67 0 0
-0.1787 2.8806 0.1678 0.006 -0.516 0.857 176 153 115 0 0
0.2295 2.9851 0.1773 -0.405 -0.244 -0.881 174 101 37 0 0
0.2342 2.9783 0.1768 -0.411 -0.230 -0.882 156 85 31 0 0
0.2399 2.9757 0.1767 -0.647 -0.362 -0.672 135 67 28 0 0
0.2442 2.9675 0.1761 -0.875 -0.478 -0.077 124 59 28 0 0
0.2485 2.9595 0.1755 -0.880 -0.446 0.162 104 44 13 0 0
0.2526 2.9505 0.1749 -0.852 -0.390 0.350 95 42 17 0 0
0.2561 2.9394 0.1741 -0.781 -0.437 0.446 89 39 17 0 0
0.2597 2.9291 0.1734 -0.757 -0.400 0.516 85 37 15 0 0
0.2638 2.9206 0.1728 -0.762 -0.445 0.470 84 37 16 0 0
0.2681 2.9134 0.1723 -0.740 -0.525 0.420 82 36 15 0 0
0.2734 2.9097 0.1720 -0.875 -0.450 0.180 83 37 15 0 0
0.2774 2.9016 0.1715 -0.875 -0.450 0.180 86 38 16 0 0
0.2813 2.8930 0.1709 -0.907 -0.370 0.202 86 38 16 0 0
0.2850 2.8835 0.1702 -0.915 -0.354 0.195 88 38 17 0 0
0.2882 2.8727 0.1694 -0.902 -0.308 0.302 92 39 17 0 0
0.2923 2.8652 0.1689 -0.923 -0.337 0.186 97 41 18 0 0
0.4478 2.7440 0.1609 0.268 -0.148 -0.952 144 142 138 0 0
0.4852 2.7832 0.1639 0.031 -0.121 -0.992 213 213 211 0 0
0.4915 2.7841 0.1640 0.031 -0.121 -0.992 218 217 217 0 0
0.4999 2.7909 0.1645 0.041 -0.113 -0.993 224 224 223 0 0
0.5071 2.7939 0.1648 0.160 -0.192 -0.968 231 231 229 0 0
0.5138 2.7960 0.1649 0.188 -0.205 -0.960 229 228 225 0 0
0.5403 2.7857 0.1643 -0.538 -0.814 0.217 179 172 168 0 0
0.5451 2.7825 0.1641 -0.538 -0.814 0.217 170 163 156 0 0
0.5504 2.7805 0.1640 -0.510 -0.846 0.156 161 150 144 0 0
0.5567 2.7813 0.1641 -0.695 -0.719 0.016 152 139 130 0 0
0.6692 2.8349 0.1685 0.056 -0.587 -0.808 87 63 55 0 0
0.6759 2.8360 0.1686 -0.222 -0.676 -0.702 87 64 53 0 0
0.6815 2.8348 0.1686 -0.527 -0.735 -0.427 89 68 56 0 0
0.6947 2.8074 0.1666 -0.658 -0.087 -0.748 97 80 70 0 0
0.6963 2.7968 0.1659 -0.675 -0.090 -0.732 89 73 63 0 0
1.1181 2.9386 0.1782 -0.664 -0.272 -0.696 143 137 120 0 0
1.2512 3.0224 0.1849 0.008 -0.992 0.124 126 120 105 0 0
1.5215 3.1721 0.1970 -0.269 -0.608 0.747 134 126 117 0 0
1.5269 3.1693 0.1968 -0.360 -0.588 0.725 163 155 145 0 0
1.5301 3.1633 0.1964 -0.624 -0.539 0.566 169 163 152 0 0
1.5328 3.1563 0.1959 -0.717 -0.519 0.466 180 173 163 0 0
1.7021 3.3047 0.2075 -0.184 -0.272 0.945 175 167 155 0 0
1.7304 3.2915 0.2067 0.015 -0.433 0.901 170 166 154 0 0
1.7333 3.2849 0.2062 0.267 -0.614 0.743 172 169 154 0 0
-1.1062 1.9342 0.0908 0.105 -0.863 -0.494 148 126 95 0 0
-1.1027 1.9352 0.0909 0.160 -0.950 -0.267 141 116 85 0 0
-1.0991 1.9358 0.0910 0.399 -0.893 -0.209 142 116 86 0 0
-1.0955 1.9364 0.0910 0.198 -0.967 -0.159 151 124 94 0 0
-1.0914 1.9357 0.0910 -0.330 -0.944 -0.008 154 125 104 0 0
-1.0795 1.9595 0.0927 0.627 -0.755 -0.192 173 156 136 0 0
-1.0772 1.9648 0.0931 0.702 -0.697 -0.151 172 156 139 0 0
-1.0739 1.9667 0.0933 0.873 -0.469 -0.134 172 155 136 0 0
-1.0905 2.1066 0.1030 0.934 -0.339 -0.114 136 122 110 0 0
-1.0894 2.1174 0.1038 0.406 -0.583 -0.704 141 128 114 0 0
-1.0826 2.1084 0.1032 0.803 -0.210 0.558 136 122 110 0 0
-1.0805 2.1158 0.1037 0.790 -0.205 0.578 138 123 114 0 0
-1.0664 2.3878 0.1230 0.259 -0.867 0.426 63 54 46 0 0
-1.0605 2.3830 0.1227 -0.262 -0.908 -0.326 87 78 67 0 0
-1.0553 2.3813 0.1226 -0.076 -0.796 -0.600 88 79 69 0 0
-0.7580 2.8424 0.1564 0.052 -0.620 -0.783 15 14 12 0 0
-0.7507 2.8264 0.1553 0.360 -0.880 -0.310 15 14 12 0 0
-0.7456 2.8341 0.1559 -0.200 -0.704 -0.682 16 15 13 0 0
-0.7397 2.8325 0.1558 -0.200 -0.704 -0.682 16 15 13 0 0
-0.6417 2.7359 0.1494 -0.541 -0.513 0.666 15 14 12 0 0
-0.6360 2.7336 0.1493 -0.563 -0.537 0.629 16 15 13 0 0
-0.6246 2.7295 0.1491 0.247 -0.516 0.820 15 14 12 0 0
-0.3729 2.4558 0.1310 -0.217 -0.971 -0.099 33 22 19 0 0
-0.3679 2.4547 0.1309 -0.217 -0.971 -0.099 38 27 20 0 0
-0.3627 2.4560 0.1310 -0.521 -0.735 -0.435 75 51 42 0 0
-0.3578 2.4525 0.1308 -0.534 -0.725 -0.435 164 125 99 0 0
-0.3063 2.7699 0.1534 -0.945 -0.265 -0.190 213 142 69 0 0
-0.1740 2.8688 0.1610 0.043 -0.610 0.791 144 129 104 0 0
-0.1237 2.8389 0.1591 0.511 -0.848 0.142 176 161 123 0 0
-0.1994 2.1138 0.1077 -0.254 -0.923 0.290 144 132 115 0 0
0.2291 3.0100 0.1728 -0.916 -0.212 -0.342 115 54 24 0 0
0.2363 2.9869 0.1712 -0.726 -0.363 -0.584 101 46 20 0 0
0.2413 2.9558 0.1690 -0.749 -0.310 0.585 95 44 19 0 0
0.2451 2.9456 0.1683 -0.691 -0.342 0.636 96 43 16 0 0
0.2490 2.9362 0.1677 -0.702 -0.354 0.618 93 42 17 0 0
0.2533 2.9286 0.1671 -0.643 -0.401 0.653 91 41 18 0 0
0.2589 2.9261 0.1670 -0.797 -0.417 0.437 89 39 17 0 0
0.2630 2.9177 0.1664 -0.797 -0.417 0.437 86 40 17 0 0
0.2684 2.9146 0.1662 -0.918 -0.366 0.153 85 39 16 0 0
0.3298 2.6127 0.1453 0.570 -0.578 0.584 205 146 97 0 0
0.4280 2.7917 0.1583 -0.323 -0.162 -0.933 183 182 178 0 0
0.4329 2.7885 0.1581 -0.275 -0.214 -0.937 198 197 195 0 0
0.4377 2.7849 0.1579 -0.255 -0.194 -0.947 206 206 205 0 0
0.4421 2.7800 0.1576 -0.238 -0.183 -0.954 210 211 210 0 0
0.4466 2.7757 0.1573 -0.238 -0.183 -0.954 213 215 215 0 0
0.4531 2.7772 0.1574 -0.106 -0.265 -0.958 222 225 223 0 0
0.4656 2.7960 0.1588 0.206 -0.163 -0.965 232 233 232 0 0
0.5375 2.7945 0.1590 -0.195 -0.778 -0.597 125 105 88 0 0
0.5430 2.7931 0.1590 -0.013 -0.821 -0.571 123 99 82 0 0
0.5490 2.7930 0.1590 -0.188 -0.839 -0.511 118 93 77 0 0
0.5536 2.7890 0.1587 -0.482 -0.840 -0.251 115 90 74 0 0
0.5872 2.8137 0.1606 0.561 -0.794 0.233 99 78 61 0 0
0.5938 2.8151 0.1607 0.609 -0.651 -0.454 98 76 59 0 0
0.6360 2.8443 0.1630 -0.090 -0.701 -0.708 98 77 63 0 0
0.6419 2.8435 0.1630 -0.090 -0.701 -0.708 105 85 72 0 0
0.6481 2.8438 0.1630 -0.041 -0.774 -0.632 102 84 69 0 0
0.6533 2.8413 0.1629 0.042 -0.876 -0.480 100 83 65 0 0
0.6580 2.8376 0.1626 -0.490 -0.818 -0.301 97 81 62 0 0
0.6649 2.8393 0.1628 -0.494 -0.865 -0.091 96 79 63 0 0
0.6700 2.8368 0.1626 -0.894 -0.281 0.349 102 87 71 0 0
0.6748 2.8335 0.1624 -0.841 -0.484 0.244 106 92 75 0 0
0.6766 2.8228 0.1617 -0.767 -0.415 0.490 114 101 84 0 0
0.6798 2.8157 0.1612 -0.684 -0.319 0.656 120 105 87 0 0
0.6840 2.8112 0.1609 -0.486 -0.417 0.768 124 110 89 0 0
0.7193 2.7383 0.1559 -0.275 -0.097 0.957 189 181 165 0 0
0.7236 2.7078 0.1538 -0.248 -0.100 0.964 192 183 170 0 0
1.5119 3.7331 0.2296 -0.680 -0.278 0.678 146 141 122 0 0
1.5176 3.7283 0.2293 -0.660 -0.157 0.734 139 133 114 0 0
1.5221 3.7062 0.2278 -0.620 -0.173 0.765 151 145 128 0 0
1.1210 2.9558 0.1731 -0.169 -0.636 -0.753 160 154 138 0 0
1.1533 2.9202 0.1707 -0.597 -0.101 0.796 128 122 107 0 0
1.2286 3.0064 0.1772 0.556 -0.541 0.631 142 135 121 0 0
1.2964 3.0771 0.1824 -0.296 -0.177 -0.939 133 129 119 0 0
1.5247 3.1658 0.1897 0.026 -0.546 0.837 91 86 76 0 0
1.5284 3.1606 0.1894 -0.483 -0.639 0.599 136 131 122 0 0
1.5300 3.1521 0.1888 -0.934 -0.356 0.028 173 166 156 0 0
1.7048 3.2754 0.1983 -0.130 -0.390 0.911 158 152 140 0 0
1.7106 3.2732 0.1982 -0.130 -0.390 0.911 165 159 147 0 0
1.7248 3.2723 0.1982 0.257 -0.625 0.738 170 165 152 0 0
-1.1109 1.9368 0.0871 0.527 -0.739 -0.419 145 125 103 0 0
-1.1069 1.9363 0.0871 0.105 -0.863 -0.494 149 129 101 0 0
-1.0995 1.9370 0.0872 0.118 -0.872 -0.475 150 125 94 0 0
-1.0958 1.9375 0.0872 0.118 -0.872 -0.475 139 113 84 0 0
-1.0916 1.9363 0.0871 0.353 -0.554 -0.754 149 121 98 0 0
-1.0815 1.9664 0.0892 0.153 -0.727 0.670 163 145 125 0 0
-1.0779 1.9671 0.0893 0.610 -0.783 0.119 156 134 116 0 0
-1.0742 1.9677 0.0894 0.832 -0.509 -0.219 170 152 131 0 0
-1.0715 1.9720 0.0897 0.924 -0.356 -0.138 172 158 139 0 0
-1.0907 2.1074 0.0988 0.934 -0.339 -0.114 137 122 110 0 0
-1.0905 2.1215 0.0998 0.406 -0.583 -0.704 143 131 117 0 0
-1.0802 2.0997 0.0984 0.820 -0.197 0.537 142 130 118 0 0
-1.0657 2.3852 0.1179 0.404 -0.530 0.746 40 32 23 0 0
-1.0558 2.4241 0.1206 -0.139 -0.277 0.951 64 55 49 0 0
-1.1516 3.0407 0.1623 0.052 -0.476 -0.878 16 12 11 0 0
-0.7453 2.8306 0.1498 0.387 -0.469 -0.794 16 15 13 0 0
-0.3988 2.9419 0.1590 -0.795 -0.508 -0.331 24 20 17 0 0
-0.3907 3.0012 0.1631 -0.078 -0.444 -0.893 28 24 21 0 0
-0.3845 3.0002 0.1630 -0.078 -0.444 -0.893 33 29 24 0 0
-0.3787 2.4410 0.1248 0.201 -0.893 0.404 29 21 16 0 0
-0.3735 2.4443 0.1251 0.155 -0.866 0.476 32 21 16 0 0
-0.3682 2.4475 0.1253 0.032 -0.949 0.313 36 23 19 0 0
-0.3629 2.4535 0.1258 -0.411 -0.865 -0.289 40 25 19 0 0
-0.3579 2.4511 0.1256 -0.409 -0.858 -0.311 63 44 36 0 0
-0.1748 2.8616 0.1545 0.022 -0.646 0.763 169 161 137 0 0
-0.1688 2.8613 0.1545 0.091 -0.627 0.773 85 69 48 0 0
-0.1630 2.8598 0.1544 -0.010 -0.683 0.730 173 151 108 0 0
-0.1570 2.8598 0.1544 -0.010 -0.683 0.730 185 167 126 0 0
-0.1354 2.8408 0.1532 -0.612 -0.645 0.457 180 167 133 0 0
-0.1300 2.8362 0.1530 -0.519 -0.690 0.505 175 156 114 0 0
-0.1239 2.8377 0.1531 0.486 -0.873 -0.043 178 163 129 0 0
-0.1198 2.8238 0.1522 -0.112 -0.989 0.093 150 139 115 0 0
0.2244 3.0447 0.1688 -0.590 -0.129 -0.797 127 62 24 0 0
0.2434 2.9388 0.1616 -0.686 -0.359 0.633 98 45 20 0 0
0.2474 2.9300 0.1611 -0.686 -0.359 0.633 99 46 20 0 0
0.2515 2.9213 0.1605 -0.686 -0.359 0.633 95 43 18 0 0
0.2575 2.9204 0.1605 -0.805 -0.403 0.435 93 42 18 0 0
0.2628 2.9170 0.1602 -0.973 -0.213 0.089 90 40 16 0 0
0.2660 2.9053 0.1595 -0.974 -0.209 0.082 89 40 17 0 0
0.1675 2.1853 0.1098 0.673 -0.738 -0.053 158 76 26 0 0
0.4141 2.8046 0.1532 -0.753 -0.204 -0.625 223 224 220 0 0
0.4885 2.7925 0.1528 0.083 -0.428 -0.900 131 100 92 0 0
0.4931 2.7887 0.1525 0.095 -0.517 -0.851 132 93 87 0 0
0.5136 2.7954 0.1531 0.067 -0.678 -0.732 124 79 72 0 0
0.5206 2.7981 0.1533 0.082 -0.870 -0.487 124 80 73 0 0
0.5267 2.7980 0.1533 -0.094 -0.818 -0.567 122 79 73 0 0
0.5342 2.8021 0.1536 0.355 -0.840 -0.410 120 78 71 0 0
0.5396 2.8002 0.1535 0.197 -0.763 -0.615 117 78 68 0 0
0.5875 2.8144 0.1547 0.516 -0.362 -0.776 104 86 75 0 0
0.5976 2.8248 0.1555 0.551 -0.352 -0.757 97 80 69 0 0
0.6494 2.8469 0.1572 -0.413 -0.398 0.819 135 119 96 0 0
0.6879 2.7770 0.1526 -0.048 -0.181 0.982 192 181 162 0 0
0.7041 2.7448 0.1505 -0.430 -0.051 0.901 179 170 154 0 0
0.7038 2.7302 0.1495 -0.430 -0.051 0.901 175 166 150 0 0
0.7053 2.7201 0.1488 -0.362 -0.076 0.929 169 161 146 0 0
0.7049 2.7057 0.1478 -0.302 -0.097 0.948 157 148 133 0 0
0.7072 2.6845 0.1464 -0.288 -0.100 0.952 136 126 114 0 0
1.1401 2.9668 0.1676 0.538 -0.721 -0.437 147 144 130 0 0
1.1540 2.9801 0.1686 -0.851 -0.224 -0.476 148 145 128 0 0
1.4864 3.1278 0.1802 0.215 -0.453 0.865 154 150 135 0 0
1.5316 3.1546 0.1822 -0.246 -0.645 0.723 95 90 80 0 0
1.5330 3.1457 0.1816 -0.968 -0.241 -0.066 146 139 128 0 0
1.6880 3.2613 0.1902 -0.091 -0.387 0.917 179 174 163 0 0
1.7002 3.2577 0.1900 0.009 -0.445 0.895 161 155 143 0 0
1.7072 3.2571 0.1900 0.069 -0.492 0.868 164 158 146 0 0
1.7167 3.2604 0.1903 0.162 -0.553 0.818 169 164 151 0 0
1.7339 3.2640 0.1906 -0.393 -0.204 0.896 183 176 168 0 0
-1.1111 1.9376 0.0832 0.289 -0.779 -0.557 153 134 110 0 0
-1.1076 1.9384 0.0833 0.105 -0.863 -0.494 155 134 111 0 0
-1.1031 1.9364 0.0832 -0.296 -0.895 -0.335 157 133 110 0 0
-1.1001 1.9390 0.0834 0.118 -0.872 -0.475 152 127 96 0 0
-1.0961 1.9384 0.0833 0.328 -0.753 -0.571 152 127 99 0 0
-1.0928 1.9402 0.0835 0.510 -0.668 -0.541 148 121 95 0 0
-1.0718 1.9730 0.0857 0.920 -0.332 -0.207 166 147 125 0 0
-1.0937 2.1179 0.0952 0.952 -0.277 -0.132 136 120 109 0 0
-1.0916 2.1253 0.0957 0.488 -0.614 -0.620 144 131 117 0 0
-1.0764 2.0863 0.0932 0.695 -0.302 0.652 140 128 116 0 0
-1.0614 2.3870 0.1132 0.123 -0.607 0.785 55 46 36 0 0
-1.0569 2.3880 0.1133 0.123 -0.607 0.785 88 81 67 0 0
-1.0447 2.3971 0.1140 -0.120 -0.279 0.953 68 60 54 0 0
-1.1485 2.9456 0.1498 0.715 -0.686 0.131 19 15 14 0 0
-0.5026 2.1027 0.0968 0.237 -0.835 0.497 16 15 13 0 0
-0.3966 3.0115 0.1575 -0.169 -0.353 -0.920 31 27 23 0 0
-0.3904 3.0110 0.1575 -0.035 -0.334 -0.942 33 30 25 0 0
-0.1819 2.8513 0.1478 -0.043 -0.638 0.768 184 168 136 0 0
-0.1363 2.8335 0.1468 -0.547 -0.836 0.029 171 163 137 0 0
-0.1310 2.8287 0.1465 -0.475 -0.859 0.192 164 152 123 0 0
-0.1240 2.8368 0.1471 0.511 -0.848 0.142 144 132 109 0 0
-0.1198 2.8234 0.1462 0.160 -0.987 -0.008 113 103 88 0 0
0.2453 2.9215 0.1543 -0.722 -0.313 0.617 108 53 26 0 0
0.1663 2.1971 0.1060 -0.706 -0.685 0.178 162 80 28 0 0
0.1737 2.1905 0.1056 -0.309 -0.834 0.457 163 85 36 0 0
0.3246 2.5964 0.1331 0.461 -0.586 0.666 182 162 143 0 0
0.3323 2.6030 0.1336 0.461 -0.586 0.666 155 144 138 0 0
0.4361 2.7980 0.1470 -0.878 -0.181 -0.443 126 104 98 0 0
0.4443 2.7864 0.1463 -0.636 -0.326 -0.700 123 93 83 0 0
0.4531 2.7771 0.1457 0.225 -0.818 -0.529 125 83 71 0 0
0.4594 2.7780 0.1458 0.091 -0.986 -0.138 124 77 66 0 0
0.4604 2.7636 0.1448 0.447 -0.664 0.599 121 72 62 0 0
0.4844 2.7809 0.1461 0.447 -0.664 0.599 130 75 70 0 0
0.5081 2.7968 0.1472 0.048 -0.484 0.874 121 75 64 0 0
0.5097 2.7843 0.1464 -0.369 -0.577 0.729 118 77 66 0 0
0.5167 2.7872 0.1466 0.651 -0.732 0.203 118 81 70 0 0
0.5491 2.7932 0.1472 0.013 -0.508 -0.861 97 81 74 0 0
0.5682 2.7958 0.1474 0.170 -0.200 -0.965 76 70 60 0 0
0.6227 2.8577 0.1518 0.559 -0.828 -0.044 105 95 78 0 0
0.6481 2.8591 0.1520 -0.162 -0.297 0.941 180 162 133 0 0
0.6529 2.8558 0.1518 -0.162 -0.297 0.941 182 164 138 0 0
1.5069 3.6782 0.2100 -0.614 -0.155 0.774 133 126 112 0 0
1.1392 2.9415 0.1596 -0.595 -0.171 0.785 140 134 118 0 0
1.4727 3.0951 0.1712 0.235 -0.402 0.885 143 140 125 0 0
1.5321 3.1444 0.1747 0.198 -0.491 0.849 76 70 57 0 0
1.5386 3.1435 0.1747 -0.270 -0.550 0.790 111 105 91 0 0
1.5412 3.1367 0.1742 -0.632 -0.533 0.562 154 147 133 0 0
1.5451 3.1318 0.1739 -0.632 -0.533 0.562 166 158 146 0 0
1.5511 3.1195 0.1732 -0.602 -0.478 0.639 183 174 165 0 0
1.6811 3.2401 0.1817 -0.041 -0.417 0.908 188 181 172 0 0
1.6878 3.2393 0.1817 0.014 -0.445 0.895 170 163 154 0 0
1.6960 3.2405 0.1818 0.219 -0.599 0.770 144 138 126 0 0
1.7262 3.2527 0.1827 -0.565 -0.261 0.783 178 170 160 0 0
-1.1152 1.9381 0.0793 0.335 -0.807 -0.486 142 125 107 0 0
-1.1117 1.9394 0.0794 0.321 -0.811 -0.489 151 131 107 0 0
-1.1082 1.9404 0.0795 0.053 -0.915 -0.401 152 131 108 0 0
-1.1036 1.9380 0.0794 -0.296 -0.895 -0.335 156 133 110 0 0
-1.1001 1.9391 0.0794 0.018 -0.869 -0.494 151 128 98 0 0
-1.0956 1.9368 0.0793 0.368 -0.725 -0.582 151 127 99 0 0
-1.0723 1.9745 0.0818 0.921 -0.339 -0.189 160 138 112 0 0
-1.0725 2.0581 0.0872 0.977 -0.184 0.108 142 131 117 0 0
-1.0743 2.0787 0.0885 0.866 -0.220 0.449 143 131 118 0 0
-1.1233 2.5389 0.1178 0.983 -0.181 0.044 100 89 78 0 0
-1.1211 2.5507 0.1186 0.983 -0.181 0.044 85 75 62 0 0
-1.1478 2.9423 0.1436 0.874 -0.431 -0.223 19 15 14 0 0
-1.1456 2.9590 0.1447 0.827 -0.397 -0.398 17 14 12 0 0
-1.1414 2.9667 0.1452 0.663 -0.620 -0.419 16 13 11 0 0
-0.3740 2.4341 0.1143 0.279 -0.865 0.417 31 22 17 0 0
-0.3417 2.4657 0.1165 0.895 -0.358 0.266 65 46 39 0 0
-0.1827 2.8436 0.1414 -0.043 -0.638 0.768 194 167 127 0 0
0.0076 2.5602 0.1240 -0.476 -0.429 0.768 96 90 83 0 0
0.3188 2.5778 0.1264 -0.057 -0.418 0.907 117 93 82 0 0
