ply
format ascii 1.0
element vertex 831
property float x
property float y
property float z
property float nx
property float ny
property float nz
property uchar diffuse_red
property uchar diffuse_green
property uchar diffuse_blue
property uchar class
property uchar detection
end_header
-0.9446 3.5148 -0.7434 0.760 -0.229 -0.608 56 46 44 0 0
-0.4903 2.8428 -0.5800 -0.535 -0.712 -0.455 74 64 61 0 0
-0.4392 2.8029 -0.5672 0.770 -0.487 -0.413 51 46 42 0 0
-0.3206 2.8839 -0.5642 0.422 -0.669 -0.612 171 162 154 0 0
-0.2490 3.8704 -0.7074 -0.617 -0.784 -0.061 167 158 152 0 0
0.0955 2.2770 -0.4158 -0.853 -0.505 0.134 45 44 40 0 0
0.0526 3.1384 -0.5547 -0.482 -0.851 0.209 46 41 37 0 0
0.0595 3.1355 -0.5533 -0.283 -0.913 0.295 45 40 36 0 0
-0.0029 3.8328 -0.6694 -0.755 -0.647 -0.103 45 40 38 0 0
0.0063 3.8217 -0.6664 -0.757 -0.648 -0.083 83 75 70 0 0
0.2073 2.3190 -0.4077 0.777 -0.630 0.026 163 150 141 0 0
0.2201 2.3311 -0.4079 -0.005 -0.982 -0.190 169 159 150 0 0
0.2333 2.3399 -0.4075 0.543 -0.819 -0.184 172 163 154 0 0
0.2377 2.3427 -0.4074 0.540 -0.817 -0.201 174 165 156 0 0
0.2481 2.3331 -0.4046 -0.349 -0.903 -0.251 169 159 150 0 0
0.5738 2.3578 -0.3658 0.361 -0.931 -0.046 91 89 85 0 0
0.5785 2.3626 -0.3659 0.492 -0.868 -0.058 63 65 60 0 0
0.5881 2.3758 -0.3667 0.830 -0.557 0.002 60 63 58 0 0
0.6023 2.3883 -0.3667 0.382 -0.917 -0.115 52 57 52 0 0
0.6070 2.3902 -0.3664 0.382 -0.917 -0.115 51 54 48 0 0
0.6117 2.3933 -0.3663 0.020 -0.996 -0.082 48 49 42 0 0
0.6205 2.3905 -0.3647 -0.612 -0.783 -0.108 34 32 28 0 0
0.6250 2.3899 -0.3640 -0.268 -0.958 -0.103 32 29 24 0 0
0.6397 2.3424 -0.3547 -0.896 -0.384 0.222 38 31 24 0 0
0.6437 2.3374 -0.3534 -0.559 -0.465 0.686 56 44 29 0 0
0.6478 2.3336 -0.3523 -0.658 -0.507 0.557 99 78 56 0 0
0.6518 2.3288 -0.3511 -0.580 -0.504 0.640 124 104 83 0 0
0.7010 2.3416 -0.3466 0.007 -0.935 -0.355 182 159 127 0 0
0.7051 2.3397 -0.3458 0.241 -0.938 -0.247 178 154 121 0 0
0.7097 2.3414 -0.3454 0.327 -0.917 -0.226 170 146 111 0 0
0.7140 2.3416 -0.3449 0.329 -0.906 -0.267 178 158 119 0 0
0.7189 2.3462 -0.3450 0.568 -0.814 -0.120 172 150 113 0 0
0.7616 2.3411 -0.3386 0.023 -0.947 -0.321 193 175 155 0 0
0.7658 2.3404 -0.3379 0.064 -0.932 -0.355 183 166 144 0 0
0.7825 2.3364 -0.3351 -0.255 -0.954 -0.160 184 168 149 0 0
0.7868 2.3366 -0.3346 -0.071 -0.959 0.274 192 177 158 0 0
0.8042 2.3388 -0.3327 -0.010 -0.894 -0.447 193 177 158 0 0
0.8082 2.3367 -0.3318 0.159 -0.946 -0.281 198 183 166 0 0
0.8125 2.3370 -0.3313 0.120 -0.964 -0.238 196 182 164 0 0
0.8168 2.3375 -0.3308 0.157 -0.959 -0.236 190 174 154 0 0
0.8211 2.3379 -0.3303 0.102 -0.970 -0.222 176 157 133 0 0
0.8254 2.3382 -0.3298 0.102 -0.970 -0.222 151 128 105 0 0
0.8297 2.3385 -0.3293 -0.076 -0.956 -0.284 189 174 156 0 0
0.8339 2.3382 -0.3287 -0.103 -0.946 -0.308 198 185 169 0 0
0.8381 2.3375 -0.3280 -0.103 -0.946 -0.308 200 188 172 0 0
0.8423 2.3371 -0.3274 -0.095 -0.908 -0.408 198 185 170 0 0
0.8469 2.3395 -0.3272 0.182 -0.843 -0.505 197 183 166 0 0
0.8513 2.3405 -0.3268 0.071 -0.858 -0.508 190 177 160 0 0
0.8554 2.3400 -0.3261 0.005 -0.849 -0.529 192 179 162 0 0
0.8596 2.3396 -0.3255 0.005 -0.849 -0.529 188 174 157 0 0
0.8635 2.3375 -0.3247 0.056 -0.904 -0.424 160 136 109 0 0
0.8677 2.3375 -0.3241 0.056 -0.904 -0.424 160 132 99 0 0
0.8719 2.3375 -0.3236 0.056 -0.904 -0.424 166 143 109 0 0
0.8761 2.3375 -0.3230 0.056 -0.904 -0.424 164 140 107 0 0
0.8804 2.3376 -0.3225 -0.143 -0.893 -0.427 161 136 106 0 0
0.8846 2.3377 -0.3220 0.164 -0.926 -0.341 170 147 115 0 0
0.8887 2.3371 -0.3213 0.053 -0.878 -0.476 178 158 128 0 0
0.8929 2.3370 -0.3208 0.053 -0.878 -0.476 185 167 142 0 0
0.8971 2.3370 -0.3202 0.053 -0.878 -0.476 195 177 152 0 0
0.9011 2.3359 -0.3195 -0.060 -0.844 -0.533 172 153 126 0 0
0.9051 2.3352 -0.3189 -0.060 -0.844 -0.533 165 142 114 0 0
0.9098 2.3376 -0.3187 0.061 -0.886 -0.460 168 146 117 0 0
0.9140 2.3376 -0.3181 0.061 -0.886 -0.460 171 152 126 0 0
0.9180 2.3366 -0.3174 0.108 -0.908 -0.404 172 153 129 0 0
0.9222 2.3368 -0.3169 0.050 -0.924 -0.379 178 161 134 0 0
0.9263 2.3368 -0.3164 0.050 -0.924 -0.379 188 170 141 0 0
0.9305 2.3368 -0.3158 0.050 -0.924 -0.379 186 168 139 0 0
0.9347 2.3368 -0.3153 0.050 -0.924 -0.379 169 149 126 0 0
0.9253 2.2300 -0.3000 0.342 -0.935 0.090 148 126 110 0 0
0.9297 2.2322 -0.2998 0.616 -0.776 0.140 160 142 120 0 0
0.9484 2.2275 -0.2966 0.139 -0.841 0.523 159 136 118 0 0
0.9529 2.2299 -0.2964 0.286 -0.747 0.600 179 165 149 0 0
0.9567 2.2293 -0.2958 0.051 -0.859 0.510 190 180 168 0 0
0.9610 2.2310 -0.2955 -0.004 -0.704 0.710 199 191 184 0 0
0.9644 2.2286 -0.2946 0.476 -0.576 0.665 215 213 211 0 0
0.9691 2.2318 -0.2945 0.433 -0.570 0.698 209 210 210 0 0
0.9741 2.2367 -0.2946 0.409 -0.591 0.695 204 206 205 0 0
0.9787 2.2396 -0.2945 0.372 -0.568 0.734 202 203 201 0 0
0.9833 2.2424 -0.2943 0.263 -0.583 0.769 208 208 206 0 0
0.9881 2.2462 -0.2943 0.283 -0.709 0.646 209 207 202 0 0
0.9924 2.2474 -0.2939 0.599 -0.722 0.346 194 187 177 0 0
0.9976 2.2527 -0.2940 0.740 -0.656 0.150 190 184 173 0 0
1.0024 2.2565 -0.2940 0.607 -0.782 -0.141 199 197 189 0 0
1.0037 2.2452 -0.2921 0.434 -0.247 0.866 208 212 205 0 0
1.0092 2.2516 -0.2924 0.430 -0.274 0.860 204 213 208 0 0
1.0147 2.2581 -0.2926 0.439 -0.310 0.844 195 207 206 0 0
1.0167 2.2504 -0.2912 -0.592 -0.764 0.255 184 204 200 0 0
1.0319 2.2327 -0.2865 -0.533 -0.758 -0.377 114 218 217 0 0
1.1007 2.2038 -0.2730 -0.039 -0.287 -0.957 187 207 208 0 0
1.4515 2.6450 -0.2953 -0.191 -0.336 0.922 186 179 176 0 0
1.4496 2.6282 -0.2930 0.068 -0.211 0.975 214 209 207 0 0
1.4549 2.6308 -0.2927 0.059 -0.215 0.975 228 224 221 0 0
1.4600 2.6327 -0.2923 0.000 -0.233 0.973 230 227 222 0 0
-1.2594 1.8492 -0.5313 0.145 -0.882 -0.448 175 142 113 0 0
-1.2536 1.8485 -0.5305 0.122 -0.869 -0.480 173 136 106 0 0
-1.2358 1.8512 -0.5285 -0.160 -0.885 -0.437 190 163 134 0 0
-1.2286 1.8489 -0.5272 -0.112 -0.904 -0.413 213 200 182 0 0
-1.2244 1.8498 -0.5268 0.163 -0.856 -0.490 182 160 136 0 0
-1.2164 1.8520 -0.5261 0.273 -0.853 -0.444 173 140 99 0 0
-1.2038 1.8603 -0.5258 0.485 -0.744 -0.460 188 179 172 0 0
-1.1958 1.8626 -0.5251 0.177 -0.866 -0.468 117 105 99 0 0
-1.1919 1.8638 -0.5247 0.327 -0.827 -0.457 70 60 47 0 0
-1.1880 1.8651 -0.5245 0.327 -0.827 -0.457 51 42 32 0 0
-1.1906 1.8736 -0.5261 0.669 -0.621 -0.408 41 36 26 0 0
-1.1888 1.8771 -0.5264 0.591 -0.648 -0.481 38 34 25 0 0
-1.1853 1.8788 -0.5262 0.494 -0.648 -0.580 40 36 27 0 0
-1.1531 1.8825 -0.5226 0.007 -0.902 -0.431 30 25 18 0 0
-1.1478 1.8822 -0.5219 0.007 -0.902 -0.431 31 26 18 0 0
-1.1425 1.8819 -0.5211 0.007 -0.902 -0.431 89 72 51 0 0
-1.1498 2.3420 -0.5942 0.673 -0.327 0.663 42 33 24 0 0
-1.1478 2.3475 -0.5948 0.484 -0.652 0.584 44 35 26 0 0
-1.1455 2.3528 -0.5953 0.847 -0.522 0.098 42 33 24 0 0
-1.1424 2.3568 -0.5955 0.838 -0.546 0.027 44 35 26 0 0
-1.0864 2.3356 -0.5848 0.844 -0.278 -0.458 43 34 25 0 0
-1.0864 2.3530 -0.5876 0.350 -0.451 -0.821 43 34 25 0 0
-1.0822 2.3555 -0.5874 0.332 -0.466 -0.820 41 32 23 0 0
-1.0772 2.3568 -0.5870 0.181 -0.529 -0.829 39 30 21 0 0
-1.0612 2.3862 -0.5895 0.472 -0.344 -0.812 40 33 23 0 0
-1.0537 2.3839 -0.5881 0.268 -0.458 -0.847 40 33 23 0 0
-1.0560 2.3965 -0.5904 0.188 -0.445 -0.875 40 33 23 0 0
-1.0290 2.3914 -0.5861 0.023 -0.333 -0.942 51 43 36 0 0
-1.0290 2.4195 -0.5905 0.006 -0.327 -0.945 51 46 41 0 0
-1.0165 2.4186 -0.5887 0.008 -0.323 -0.946 59 54 51 0 0
-1.0063 2.4118 -0.5863 0.008 -0.323 -0.946 74 70 71 0 0
-1.0016 2.4137 -0.5860 0.093 -0.267 -0.959 88 83 87 0 0
-0.9944 2.4117 -0.5847 0.098 -0.265 -0.959 85 80 83 0 0
-0.9894 2.4132 -0.5843 0.103 -0.264 -0.959 81 75 75 0 0
-0.9811 2.4093 -0.5826 0.089 -0.272 -0.958 76 72 68 0 0
-0.9739 2.4071 -0.5813 0.089 -0.272 -0.958 71 67 63 0 0
-0.9637 2.4098 -0.5804 0.134 -0.247 -0.960 65 55 51 0 0
-0.8903 2.3170 -0.5562 0.382 -0.566 -0.731 103 91 84 0 0
-0.8730 2.3070 -0.5523 0.968 -0.221 -0.119 149 134 121 0 0
-0.8718 2.3144 -0.5533 0.971 -0.182 -0.157 167 151 136 0 0
-0.8522 2.3388 -0.5546 0.963 -0.166 0.213 140 120 109 0 0
-0.7640 2.2714 -0.5325 0.730 -0.638 -0.243 135 118 102 0 0
-0.7602 2.2743 -0.5324 0.631 -0.771 -0.086 137 120 103 0 0
-0.7573 2.2790 -0.5328 0.135 -0.990 0.040 138 120 104 0 0
-0.7524 2.2799 -0.5323 -0.004 -0.993 0.117 152 136 124 0 0
-0.7469 2.2798 -0.5315 -0.034 -0.989 0.141 175 164 155 0 0
-0.7411 2.2792 -0.5307 -0.137 -0.986 0.092 175 165 156 0 0
-0.7360 2.2799 -0.5301 -0.070 -0.987 0.144 176 165 156 0 0
-0.6939 2.2821 -0.5249 0.057 -0.949 -0.310 178 168 159 0 0
-0.6891 2.2834 -0.5245 -0.034 -0.980 -0.196 178 168 159 0 0
-0.6695 2.2873 -0.5225 0.297 -0.856 -0.423 181 171 163 0 0
-0.5259 2.2882 -0.5038 0.374 -0.927 0.026 194 187 178 0 0
-0.9629 3.5028 -0.7515 0.930 -0.126 -0.345 61 52 48 0 0
-0.9587 3.5120 -0.7524 0.812 -0.277 -0.514 59 52 47 0 0
-0.9527 3.5169 -0.7524 0.681 -0.302 -0.668 58 50 47 0 0
-0.9493 3.5283 -0.7537 0.775 -0.223 -0.592 72 62 58 0 0
-0.5140 2.8761 -0.5944 -0.214 -0.931 -0.294 223 217 211 0 0
-0.4916 2.8482 -0.5871 -0.535 -0.712 -0.455 84 73 67 0 0
-0.4750 2.8182 -0.5802 -0.597 -0.496 -0.631 69 59 57 0 0
-0.4654 2.8086 -0.5774 -0.483 -0.472 -0.738 68 60 54 0 0
-0.2483 3.8708 -0.7154 -0.502 -0.861 -0.077 153 144 135 0 0
-0.2390 3.8647 -0.7132 -0.533 -0.841 -0.086 90 80 77 0 0
0.1093 2.2531 -0.4150 -0.775 -0.602 0.192 40 39 35 0 0
0.0414 3.1311 -0.5615 -0.263 -0.573 0.776 44 41 36 0 0
0.0457 3.1468 -0.5633 -0.579 -0.675 0.458 44 41 36 0 0
0.0700 3.1091 -0.5542 0.130 -0.356 0.926 42 39 33 0 0
0.0072 3.8210 -0.6741 -0.683 -0.730 -0.034 89 80 74 0 0
0.2072 2.3232 -0.4131 0.879 -0.476 0.026 160 147 138 0 0
0.2204 2.3320 -0.4127 -0.005 -0.982 -0.190 166 156 147 0 0
0.2333 2.3437 -0.4129 0.389 -0.860 0.330 172 164 154 0 0
0.2380 2.3440 -0.4123 0.253 -0.950 -0.180 174 165 156 0 0
0.2536 2.3299 -0.4081 -0.249 -0.968 0.033 168 158 149 0 0
0.2593 2.3196 -0.4057 0.243 -0.967 -0.071 167 157 148 0 0
0.3014 2.3161 -0.3996 0.954 -0.164 -0.251 174 163 155 0 0
0.3044 2.3381 -0.4027 0.954 -0.164 -0.251 176 164 159 0 0
0.5697 2.3574 -0.3709 -0.110 -0.994 -0.014 127 123 120 0 0
0.5742 2.3582 -0.3704 0.361 -0.931 -0.046 82 81 76 0 0
0.5789 2.3631 -0.3706 0.492 -0.868 -0.058 62 63 58 0 0
0.5836 2.3671 -0.3706 0.392 -0.919 0.027 60 62 57 0 0
0.5886 2.3764 -0.3714 0.830 -0.557 0.002 60 63 57 0 0
0.6028 2.3891 -0.3715 0.382 -0.917 -0.115 54 56 54 0 0
0.6074 2.3910 -0.3712 0.382 -0.917 -0.115 52 53 49 0 0
0.6121 2.3937 -0.3710 0.020 -0.996 -0.082 49 50 43 0 0
0.6253 2.3878 -0.3683 -0.545 -0.831 -0.112 34 30 25 0 0
0.6285 2.3676 -0.3647 -0.934 -0.356 0.009 35 30 25 0 0
0.6399 2.3394 -0.3588 -0.910 -0.383 0.157 37 32 26 0 0
0.6438 2.3336 -0.3574 -0.621 -0.484 0.616 51 43 33 0 0
0.6479 2.3295 -0.3562 -0.669 -0.491 0.558 43 32 23 0 0
0.7726 2.3231 -0.3389 0.143 -0.432 0.890 193 178 157 0 0
0.7772 2.3258 -0.3387 0.228 -0.465 0.855 185 167 145 0 0
0.7910 2.3336 -0.3381 0.064 -0.568 0.820 195 182 164 0 0
0.7994 2.3322 -0.3368 -0.356 -0.554 0.752 193 177 155 0 0
0.8049 2.3412 -0.3374 -0.010 -0.894 -0.447 192 176 154 0 0
0.8091 2.3406 -0.3368 -0.088 -0.910 -0.404 190 175 154 0 0
0.8130 2.3382 -0.3359 0.120 -0.964 -0.238 188 172 151 0 0
0.8174 2.3387 -0.3354 0.157 -0.959 -0.236 186 169 147 0 0
0.8217 2.3393 -0.3349 0.157 -0.959 -0.236 176 156 133 0 0
0.8261 2.3399 -0.3345 0.157 -0.959 -0.236 133 106 80 0 0
0.8304 2.3405 -0.3340 0.157 -0.959 -0.236 176 156 133 0 0
0.8347 2.3406 -0.3334 -0.027 -0.936 -0.352 196 180 163 0 0
0.8389 2.3402 -0.3328 -0.027 -0.936 -0.352 195 182 166 0 0
0.8430 2.3394 -0.3322 -0.065 -0.843 -0.535 198 184 169 0 0
0.8479 2.3436 -0.3322 0.223 -0.890 -0.398 191 175 160 0 0
0.8522 2.3436 -0.3316 -0.005 -0.795 -0.606 194 178 162 0 0
0.8563 2.3431 -0.3310 -0.005 -0.795 -0.606 188 175 156 0 0
0.8605 2.3426 -0.3304 -0.005 -0.795 -0.606 190 176 158 0 0
0.8687 2.3410 -0.3291 -0.084 -0.820 -0.567 160 135 99 0 0
0.8728 2.3406 -0.3284 0.027 -0.839 -0.544 170 145 113 0 0
0.8770 2.3404 -0.3279 0.072 -0.838 -0.540 172 149 117 0 0
0.8811 2.3397 -0.3272 -0.143 -0.893 -0.427 165 140 108 0 0
0.8854 2.3399 -0.3267 0.405 -0.868 -0.288 161 137 104 0 0
0.8894 2.3390 -0.3260 0.101 -0.936 -0.337 174 154 124 0 0
0.8938 2.3399 -0.3256 -0.052 -0.843 -0.536 184 165 139 0 0
0.8979 2.3396 -0.3250 -0.060 -0.844 -0.533 183 165 138 0 0
0.9020 2.3389 -0.3243 -0.060 -0.844 -0.533 161 137 110 0 0
0.9061 2.3382 -0.3237 -0.060 -0.844 -0.533 152 124 96 0 0
0.9103 2.3384 -0.3232 0.052 -0.885 -0.462 153 126 94 0 0
0.9145 2.3384 -0.3226 0.052 -0.885 -0.462 168 147 116 0 0
0.9187 2.3387 -0.3221 0.055 -0.911 -0.408 168 148 119 0 0
0.9229 2.3385 -0.3215 0.107 -0.932 -0.346 176 157 132 0 0
0.9271 2.3388 -0.3210 0.107 -0.932 -0.346 190 172 144 0 0
0.9313 2.3389 -0.3205 -0.007 -0.875 -0.484 181 162 132 0 0
0.9354 2.3386 -0.3199 -0.007 -0.875 -0.484 152 128 99 0 0
0.9396 2.3389 -0.3194 0.163 -0.893 -0.421 150 125 97 0 0
0.9439 2.3395 -0.3189 0.163 -0.893 -0.421 148 125 100 0 0
0.9476 2.3370 -0.3181 0.004 -0.846 -0.533 151 131 106 0 0
0.9300 2.2323 -0.3040 0.568 -0.744 0.352 160 143 120 0 0
0.9321 2.2234 -0.3023 0.065 -0.982 -0.176 163 148 123 0 0
0.9401 2.2238 -0.3013 0.259 -0.859 0.442 154 133 109 0 0
0.9440 2.2237 -0.3008 0.148 -0.862 0.485 140 114 89 0 0
0.9483 2.2251 -0.3004 -0.045 -0.859 0.510 151 127 100 0 0
0.9605 2.2273 -0.2992 -0.004 -0.704 0.710 164 142 114 0 0
0.9645 2.2275 -0.2987 0.158 -0.838 0.523 159 141 123 0 0
0.9688 2.2291 -0.2984 0.402 -0.654 0.641 189 180 172 0 0
0.9734 2.2321 -0.2982 0.402 -0.654 0.641 202 198 194 0 0
0.9777 2.2335 -0.2979 0.419 -0.653 0.631 196 190 184 0 0
0.9826 2.2378 -0.2979 0.503 -0.694 0.516 185 176 163 0 0
0.9871 2.2403 -0.2977 0.568 -0.749 0.341 182 170 148 0 0
0.9922 2.2453 -0.2978 0.648 -0.708 0.281 178 165 142 0 0
0.9978 2.2521 -0.2982 0.749 -0.647 0.142 180 163 143 0 0
1.0068 2.2405 -0.2952 0.436 -0.292 0.851 199 200 190 0 0
1.0123 2.2471 -0.2955 0.439 -0.310 0.844 206 212 206 0 0
1.0326 2.2344 -0.2908 -0.533 -0.758 -0.377 150 203 201 0 0
1.0361 2.2325 -0.2901 -0.198 -0.839 -0.506 123 205 204 0 0
1.0628 2.2169 -0.2841 0.500 -0.783 -0.371 132 249 251 0 0
1.0680 2.2219 -0.2842 0.574 -0.790 -0.217 163 251 252 0 0
1.0732 2.2269 -0.2843 0.685 -0.668 0.291 175 240 240 0 0
1.0895 2.2581 -0.2871 0.254 -0.229 0.940 178 217 221 0 0
-1.2611 1.8516 -0.5363 0.203 -0.867 -0.455 176 145 119 0 0
-1.2554 1.8510 -0.5355 0.122 -0.869 -0.480 174 138 110 0 0
-1.2382 1.8544 -0.5337 -0.167 -0.875 -0.454 185 153 120 0 0
-1.2311 1.8521 -0.5324 -0.188 -0.872 -0.451 208 193 173 0 0
-1.2262 1.8523 -0.5318 0.163 -0.856 -0.490 191 173 153 0 0
-1.2104 1.8571 -0.5305 0.569 -0.715 -0.406 164 135 100 0 0
-1.1974 1.8649 -0.5300 0.177 -0.866 -0.468 149 138 135 0 0
-1.1934 1.8660 -0.5297 0.318 -0.812 -0.490 76 65 54 0 0
-1.1895 1.8674 -0.5294 0.318 -0.812 -0.490 52 42 32 0 0
-1.1888 1.8722 -0.5300 0.478 -0.718 -0.505 44 38 28 0 0
-1.1903 1.8794 -0.5314 0.591 -0.648 -0.481 41 37 28 0 0
-1.1894 1.8840 -0.5320 0.484 -0.741 -0.465 40 36 27 0 0
-1.1547 1.8849 -0.5276 0.007 -0.902 -0.431 29 24 18 0 0
-1.1493 1.8846 -0.5268 0.007 -0.902 -0.431 29 25 19 0 0
-1.1440 1.8843 -0.5261 0.007 -0.902 -0.431 70 54 37 0 0
-1.1387 1.8839 -0.5253 0.007 -0.902 -0.431 102 77 52 0 0
-1.0997 2.2884 -0.5844 0.292 -0.921 0.258 42 33 24 0 0
-1.0965 2.2920 -0.5845 0.366 -0.915 0.171 43 34 25 0 0
-1.0879 2.3474 -0.5922 0.690 -0.273 -0.671 44 34 25 0 0
-1.0895 2.3586 -0.5942 0.476 -0.368 -0.799 42 33 24 0 0
-1.0893 2.3670 -0.5955 0.008 -0.560 -0.829 43 34 25 0 0
-1.0823 2.3653 -0.5943 0.008 -0.560 -0.829 40 31 22 0 0
-1.0769 2.3661 -0.5937 0.167 -0.538 -0.826 39 30 21 0 0
-1.0719 2.3675 -0.5933 0.324 -0.482 -0.814 39 30 21 0 0
-1.0634 2.3725 -0.5929 0.031 -0.748 -0.662 39 32 22 0 0
-1.0636 2.3817 -0.5944 0.711 -0.661 -0.239 40 33 23 0 0
-1.0600 2.3854 -0.5946 0.826 -0.542 -0.152 40 33 23 0 0
-1.0100 2.3356 -0.5800 0.871 -0.309 0.382 41 34 24 0 0
-1.0185 2.3852 -0.5891 0.070 -0.289 -0.955 48 41 35 0 0
-1.0337 2.4566 -0.6024 0.054 -0.299 -0.953 54 48 44 0 0
-1.0321 2.4636 -0.6033 0.104 -0.266 -0.958 65 58 57 0 0
-1.0252 2.4623 -0.6022 0.104 -0.266 -0.958 73 65 67 0 0
-1.0130 2.4622 -0.6005 0.098 -0.265 -0.959 84 79 76 0 0
-1.0062 2.4609 -0.5994 0.037 -0.295 -0.955 96 93 88 0 0
-1.0069 2.4719 -0.6013 -0.007 -0.317 -0.948 98 95 90 0 0
-0.9937 2.4602 -0.5977 0.067 -0.271 -0.960 95 90 85 0 0
-0.9536 2.4434 -0.5897 0.095 -0.261 -0.961 66 58 54 0 0
-0.8539 2.3329 -0.5591 0.916 -0.047 0.397 159 140 125 0 0
-0.8432 2.3241 -0.5563 0.384 -0.343 0.857 172 152 134 0 0
-0.8392 2.3270 -0.5562 0.209 -0.265 0.941 170 149 129 0 0
-0.7748 2.2819 -0.5406 -0.090 -0.909 -0.406 135 118 103 0 0
-0.7657 2.2755 -0.5383 0.344 -0.887 -0.307 136 119 103 0 0
-0.7614 2.2774 -0.5381 0.367 -0.929 -0.046 136 119 104 0 0
-0.7514 2.2792 -0.5370 -0.034 -0.989 0.141 176 165 157 0 0
-0.7459 2.2791 -0.5363 -0.034 -0.989 0.141 176 165 159 0 0
-0.6891 2.2845 -0.5297 -0.041 -0.978 -0.203 178 168 159 0 0
-0.6835 2.2841 -0.5289 -0.041 -0.978 -0.203 177 167 158 0 0
-0.6785 2.2849 -0.5284 -0.215 -0.972 -0.093 179 169 160 0 0
-0.6734 2.2855 -0.5278 0.051 -0.986 -0.162 179 169 160 0 0
-0.6703 2.2900 -0.5281 0.320 -0.824 -0.468 181 171 162 0 0
-0.5261 2.2898 -0.5091 0.456 -0.884 -0.106 196 190 183 0 0
-0.5202 2.2884 -0.5081 0.428 -0.900 0.081 192 187 181 0 0
-0.9575 3.5305 -0.7628 0.695 -0.277 -0.664 67 59 56 0 0
-0.4969 2.8654 -0.5966 -0.563 -0.493 -0.663 119 106 94 0 0
-0.4817 2.8397 -0.5905 -0.591 -0.492 -0.639 81 69 62 0 0
-0.4752 2.8393 -0.5896 -0.509 -0.514 -0.691 74 64 58 0 0
-0.4626 2.8205 -0.5849 -0.493 -0.505 -0.709 63 58 52 0 0
-0.4488 2.7981 -0.5796 -0.501 -0.494 -0.710 56 52 48 0 0
-0.4476 2.8131 -0.5818 0.693 -0.423 -0.583 53 48 44 0 0
-0.3182 2.8796 -0.5753 0.362 -0.920 0.148 171 162 153 0 0
-0.3142 2.8876 -0.5760 0.362 -0.881 -0.305 167 159 151 0 0
-0.2383 3.8651 -0.7212 -0.533 -0.841 -0.086 98 89 85 0 0
0.0987 2.2633 -0.4226 -0.749 -0.660 0.064 46 45 41 0 0
0.1045 2.2569 -0.4208 -0.752 -0.655 0.080 43 42 38 0 0
0.1105 2.2488 -0.4187 -0.788 -0.608 -0.099 39 38 34 0 0
0.1165 2.2405 -0.4166 -0.807 -0.576 -0.129 46 44 40 0 0
0.1226 2.2312 -0.4143 -0.798 -0.584 -0.146 49 46 42 0 0
-0.0001 3.8222 -0.6830 -0.280 -0.951 0.130 41 38 35 0 0
0.0080 3.8201 -0.6816 -0.280 -0.951 0.130 102 94 87 0 0
0.2076 2.3236 -0.4178 0.879 -0.476 0.026 161 149 141 0 0
0.2207 2.3331 -0.4176 -0.043 -0.934 -0.355 164 154 145 0 0
0.2295 2.3392 -0.4174 0.595 -0.559 0.577 169 159 150 0 0
0.2387 2.3422 -0.4167 0.369 -0.915 0.166 174 165 158 0 0
0.2436 2.3396 -0.4156 -0.204 -0.979 -0.022 174 163 157 0 0
0.3012 2.3245 -0.4056 0.973 -0.143 -0.182 172 162 153 0 0
0.3094 2.3397 -0.4070 0.995 -0.052 0.084 176 165 159 0 0
0.3139 2.3417 -0.4067 0.977 -0.107 -0.187 174 164 157 0 0
0.5701 2.3574 -0.3755 -0.110 -0.994 -0.014 115 111 108 0 0
0.5747 2.3611 -0.3754 0.492 -0.868 -0.058 76 76 72 0 0
0.5794 2.3637 -0.3752 0.492 -0.868 -0.058 62 63 60 0 0
0.5840 2.3671 -0.3752 0.365 -0.930 0.048 59 61 56 0 0
0.5883 2.3635 -0.3740 -0.603 -0.751 0.267 61 63 58 0 0
0.6032 2.3899 -0.3763 0.382 -0.917 -0.115 53 55 52 0 0
0.6078 2.3905 -0.3757 0.393 -0.918 -0.052 52 53 48 0 0
0.6125 2.3941 -0.3757 0.020 -0.996 -0.082 48 49 42 0 0
0.6171 2.3944 -0.3751 -0.187 -0.979 -0.085 41 41 36 0 0
0.6259 2.3903 -0.3733 -0.422 -0.903 -0.073 32 29 24 0 0
0.6332 2.3651 -0.3684 0.032 -0.629 -0.777 38 33 27 0 0
0.6384 2.3765 -0.3695 -0.178 -0.545 -0.819 37 32 26 0 0
0.6428 2.3747 -0.3686 -0.292 -0.497 -0.817 38 32 26 0 0
0.8016 2.5433 -0.3745 0.476 -0.140 0.868 181 161 136 0 0
0.8093 2.3393 -0.3411 -0.013 -0.994 -0.105 190 173 152 0 0
0.8136 2.3394 -0.3405 0.120 -0.964 -0.238 189 170 147 0 0
0.8179 2.3399 -0.3400 0.157 -0.959 -0.236 184 165 142 0 0
0.8223 2.3408 -0.3396 0.265 -0.930 -0.256 188 170 147 0 0
0.8266 2.3411 -0.3391 0.157 -0.959 -0.236 176 155 129 0 0
0.8310 2.3417 -0.3386 0.157 -0.959 -0.236 180 161 139 0 0
0.8353 2.3422 -0.3381 -0.016 -0.928 -0.371 193 178 158 0 0
0.8395 2.3419 -0.3375 -0.016 -0.928 -0.371 193 178 159 0 0
0.8487 2.3459 -0.3370 0.223 -0.890 -0.398 194 177 160 0 0
0.8532 2.3477 -0.3366 -0.024 -0.797 -0.603 199 184 168 0 0
0.8574 2.3471 -0.3360 -0.024 -0.797 -0.603 191 178 159 0 0
0.8615 2.3463 -0.3353 -0.110 -0.801 -0.588 197 182 165 0 0
0.8655 2.3452 -0.3346 -0.215 -0.785 -0.582 188 170 144 0 0
0.8696 2.3443 -0.3339 -0.084 -0.820 -0.567 180 157 123 0 0
0.8737 2.3438 -0.3333 0.027 -0.839 -0.544 165 141 107 0 0
0.8779 2.3437 -0.3327 0.072 -0.838 -0.540 171 147 115 0 0
0.8822 2.3437 -0.3322 0.072 -0.838 -0.540 173 150 118 0 0
0.8861 2.3418 -0.3314 0.405 -0.868 -0.288 169 145 113 0 0
0.8901 2.3408 -0.3307 0.070 -0.904 -0.421 173 153 123 0 0
0.8947 2.3429 -0.3304 -0.052 -0.843 -0.536 180 160 131 0 0
0.8988 2.3426 -0.3298 -0.060 -0.844 -0.533 179 157 128 0 0
0.9029 2.3416 -0.3291 -0.025 -0.847 -0.531 156 128 103 0 0
0.9070 2.3411 -0.3285 0.041 -0.863 -0.503 148 120 95 0 0
0.9111 2.3409 -0.3279 0.052 -0.885 -0.462 147 118 87 0 0
0.9153 2.3409 -0.3274 0.052 -0.885 -0.462 160 135 101 0 0
0.9198 2.3425 -0.3270 -0.019 -0.983 -0.184 155 129 100 0 0
0.9238 2.3414 -0.3264 -0.104 -0.954 -0.282 177 155 130 0 0
0.9279 2.3408 -0.3257 -0.103 -0.931 -0.351 193 176 151 0 0
0.9322 2.3416 -0.3253 -0.166 -0.867 -0.471 188 172 142 0 0
0.9363 2.3411 -0.3247 0.061 -0.850 -0.523 170 148 117 0 0
0.9404 2.3411 -0.3241 0.061 -0.850 -0.523 157 134 106 0 0
0.9446 2.3409 -0.3235 0.003 -0.863 -0.505 164 144 118 0 0
0.9486 2.3404 -0.3229 0.143 -0.883 -0.448 159 140 114 0 0
0.9526 2.3396 -0.3223 0.011 -0.864 -0.504 149 130 106 0 0
0.9609 2.3393 -0.3211 -0.146 -0.872 -0.466 150 131 106 0 0
0.9649 2.3386 -0.3205 0.431 -0.689 -0.582 153 134 104 0 0
0.9696 2.3414 -0.3203 0.431 -0.689 -0.582 155 135 102 0 0
0.9684 2.2259 -0.3021 0.212 -0.909 0.360 142 117 91 0 0
0.9727 2.2276 -0.3018 0.257 -0.623 0.739 154 134 113 0 0
0.9771 2.2296 -0.3016 0.419 -0.653 0.631 159 141 121 0 0
0.9818 2.2329 -0.3015 0.560 -0.658 0.503 171 154 128 0 0
0.9872 2.2392 -0.3018 0.635 -0.717 0.287 184 167 139 0 0
0.9922 2.2437 -0.3018 0.648 -0.708 0.281 180 162 135 0 0
1.0263 2.2389 -0.2966 -0.168 -0.985 0.038 186 204 200 0 0
1.0297 2.2369 -0.2958 -0.300 -0.944 -0.136 188 204 201 0 0
1.0333 2.2358 -0.2952 -0.200 -0.958 -0.203 191 205 204 0 0
1.0369 2.2345 -0.2945 -0.034 -0.943 -0.332 191 214 215 0 0
1.0483 2.2189 -0.2905 -0.298 -0.782 -0.548 113 227 228 0 0
1.0486 2.2055 -0.2883 0.432 -0.528 -0.731 109 238 243 0 0
1.0595 2.2174 -0.2888 0.535 -0.602 -0.593 119 251 253 0 0
1.0641 2.2203 -0.2887 0.521 -0.742 -0.422 125 252 254 0 0
1.0688 2.2237 -0.2886 0.574 -0.790 -0.217 136 254 255 0 0
1.0735 2.2268 -0.2884 0.616 -0.787 -0.043 144 254 254 0 0
1.0784 2.2307 -0.2884 0.608 -0.763 0.218 139 253 253 0 0
1.0856 2.2426 -0.2894 0.107 -0.261 0.959 133 251 253 0 0
1.0909 2.2477 -0.2895 0.181 -0.238 0.954 127 248 251 0 0
1.0966 2.2543 -0.2898 0.215 -0.237 0.947 125 246 249 0 0
1.1026 2.2620 -0.2902 0.307 -0.230 0.924 119 245 247 0 0
1.1143 2.2755 -0.2908 0.349 -0.246 0.904 115 243 248 0 0
-1.2640 1.8553 -0.5416 0.303 -0.834 -0.462 176 147 123 0 0
-1.2522 1.8536 -0.5398 0.100 -0.842 -0.530 171 132 101 0 0
-1.2373 1.8540 -0.5379 0.040 -0.875 -0.482 188 151 112 0 0
-1.2335 1.8553 -0.5376 -0.188 -0.872 -0.451 200 179 156 0 0
-1.2270 1.8538 -0.5365 -0.135 -0.887 -0.441 208 193 175 0 0
-1.2120 1.8594 -0.5354 0.546 -0.706 -0.451 168 138 100 0 0
-1.2083 1.8610 -0.5352 0.651 -0.626 -0.429 168 143 114 0 0
-1.2061 1.8640 -0.5354 0.650 -0.665 -0.369 183 169 154 0 0
-1.1949 1.8684 -0.5346 0.318 -0.812 -0.490 89 79 74 0 0
-1.1911 1.8698 -0.5343 0.318 -0.812 -0.490 62 53 44 0 0
-1.1898 1.8738 -0.5348 0.563 -0.728 -0.391 50 41 34 0 0
-1.1873 1.8767 -0.5349 0.577 -0.726 -0.373 40 35 27 0 0
-1.1914 1.8869 -0.5371 0.604 -0.725 -0.332 39 35 26 0 0
-1.1509 1.8870 -0.5318 -0.008 -0.896 -0.445 31 25 20 0 0
-1.1454 1.8865 -0.5310 -0.008 -0.896 -0.445 61 47 38 0 0
-1.1407 1.8869 -0.5304 0.076 -0.889 -0.451 104 78 55 0 0
-1.0990 2.2883 -0.5895 0.818 -0.575 -0.005 43 34 25 0 0
-1.1551 2.3769 -0.6111 -0.372 -0.920 -0.124 43 34 25 0 0
-1.0901 2.3691 -0.6013 0.281 -0.532 -0.798 43 33 24 0 0
-1.0855 2.3711 -0.6010 0.281 -0.532 -0.798 44 34 25 0 0
-1.0809 2.3731 -0.6007 0.281 -0.532 -0.798 42 32 23 0 0
-1.0749 2.3730 -0.5999 0.125 -0.591 -0.797 40 31 22 0 0
-1.0583 2.3837 -0.5994 0.946 -0.320 -0.059 41 34 24 0 0
-1.0566 2.3902 -0.6002 0.912 -0.366 -0.187 41 34 24 0 0
-1.0062 2.3307 -0.5840 0.837 -0.502 0.217 40 33 23 0 0
-1.0370 2.5123 -0.6173 0.077 -0.287 -0.955 63 54 45 0 0
-1.0397 2.5267 -0.6199 0.082 -0.275 -0.958 81 70 62 0 0
-1.0317 2.5238 -0.6184 0.082 -0.275 -0.958 94 85 76 0 0
-1.0186 2.5124 -0.6149 0.071 -0.270 -0.960 100 90 81 0 0
-1.0127 2.5128 -0.6141 0.056 -0.267 -0.962 104 94 84 0 0
-1.0028 2.5065 -0.6118 0.056 -0.267 -0.962 105 98 90 0 0
-0.9742 2.4892 -0.6053 -0.023 -0.306 -0.952 100 93 86 0 0
-0.9600 2.4753 -0.6012 -0.023 -0.306 -0.952 90 81 73 0 0
-0.8937 2.4026 -0.5807 0.171 -0.193 -0.966 59 48 41 0 0
-0.8268 2.3260 -0.5596 0.246 -0.326 -0.913 124 106 96 0 0
-0.7789 2.2904 -0.5475 -0.471 -0.880 0.060 164 144 123 0 0
-0.7642 2.2836 -0.5445 -0.442 -0.860 0.254 167 150 136 0 0
-0.7569 2.2803 -0.5430 -0.442 -0.860 0.254 179 166 156 0 0
-0.7535 2.2840 -0.5431 0.302 -0.914 -0.272 178 165 158 0 0
-0.7488 2.2854 -0.5427 0.302 -0.914 -0.272 179 166 159 0 0
-0.7439 2.2866 -0.5423 0.261 -0.935 -0.241 178 166 158 0 0
-0.3119 2.8819 -0.5809 0.738 -0.606 0.297 170 161 152 0 0
0.0403 2.3249 -0.4448 -0.088 -0.969 -0.231 152 144 135 0 0
0.0453 2.3243 -0.4441 -0.088 -0.969 -0.231 123 116 111 0 0
-0.2376 3.8653 -0.7292 -0.425 -0.802 -0.419 115 108 104 0 0
0.1169 2.2410 -0.4212 -0.515 -0.838 -0.181 50 47 43 0 0
0.1226 2.2340 -0.4194 -0.755 -0.641 -0.135 51 47 44 0 0
0.0004 3.8245 -0.6912 -0.504 -0.848 0.164 40 35 32 0 0
0.0091 3.8176 -0.6889 -0.377 -0.903 0.205 126 116 108 0 0
0.2080 2.3241 -0.4226 0.879 -0.476 0.026 158 146 137 0 0
0.2262 2.3306 -0.4212 0.483 -0.636 0.602 163 153 144 0 0
0.2302 2.3374 -0.4218 0.510 -0.718 0.474 165 156 148 0 0
0.2346 2.3405 -0.4217 0.501 -0.777 0.381 170 161 154 0 0
0.2390 2.3437 -0.4216 0.421 -0.824 0.378 170 161 154 0 0
0.2439 2.3413 -0.4206 -0.279 -0.949 0.146 171 160 154 0 0
0.2541 2.3342 -0.4181 0.052 -0.998 0.026 166 156 147 0 0
0.3098 2.3400 -0.4117 0.995 -0.052 0.084 176 165 158 0 0
0.3137 2.3508 -0.4129 0.977 -0.107 -0.187 175 164 158 0 0
0.5753 2.3633 -0.3804 0.632 -0.773 -0.055 69 69 67 0 0
0.5844 2.3658 -0.3796 -0.127 -0.989 0.076 60 62 57 0 0
0.5887 2.3617 -0.3783 -0.603 -0.751 0.267 61 63 58 0 0
0.6036 2.3890 -0.3808 0.393 -0.918 -0.052 53 55 50 0 0
0.6082 2.3912 -0.3805 0.413 -0.911 -0.010 51 53 47 0 0
0.6130 2.3945 -0.3804 -0.044 -0.998 -0.040 48 49 41 0 0
0.6312 2.3969 -0.3784 0.471 -0.879 0.079 36 31 25 0 0
0.6351 2.3882 -0.3765 0.155 -0.893 -0.422 37 32 27 0 0
0.6440 2.3857 -0.3749 -0.407 -0.522 -0.749 38 32 24 0 0
0.6481 2.3805 -0.3735 -0.437 -0.522 -0.732 53 43 32 0 0
0.8318 2.3445 -0.3435 0.265 -0.930 -0.256 188 169 146 0 0
0.8363 2.3462 -0.3431 0.040 -0.880 -0.474 191 173 155 0 0
0.8406 2.3463 -0.3426 0.032 -0.856 -0.516 189 171 149 0 0
0.8448 2.3461 -0.3420 0.032 -0.856 -0.516 186 165 138 0 0
0.8494 2.3485 -0.3418 0.055 -0.864 -0.501 180 161 135 0 0
0.8580 2.3488 -0.3407 0.054 -0.789 -0.612 195 180 162 0 0
0.8622 2.3486 -0.3401 0.054 -0.789 -0.612 196 179 158 0 0
0.8747 2.3474 -0.3382 -0.079 -0.800 -0.594 163 138 103 0 0
0.8789 2.3469 -0.3376 0.072 -0.838 -0.540 171 144 113 0 0
0.8831 2.3470 -0.3371 0.061 -0.889 -0.453 173 147 118 0 0
0.8868 2.3439 -0.3361 0.395 -0.878 -0.269 173 149 118 0 0
0.8909 2.3430 -0.3354 0.070 -0.904 -0.421 173 149 118 0 0
0.8997 2.3451 -0.3346 -0.025 -0.847 -0.531 179 159 126 0 0
0.9038 2.3446 -0.3340 -0.025 -0.847 -0.531 174 153 121 0 0
0.9079 2.3439 -0.3333 0.041 -0.863 -0.503 157 131 104 0 0
0.9120 2.3436 -0.3327 0.248 -0.899 -0.360 114 85 59 0 0
0.9163 2.3442 -0.3322 0.104 -0.933 -0.343 152 126 93 0 0
0.9203 2.3431 -0.3315 -0.065 -0.977 -0.201 150 122 88 0 0
0.9244 2.3427 -0.3309 -0.065 -0.977 -0.201 172 150 122 0 0
0.9286 2.3427 -0.3304 0.024 -0.934 -0.355 182 163 135 0 0
0.9330 2.3440 -0.3300 -0.166 -0.867 -0.471 183 164 134 0 0
0.9372 2.3442 -0.3295 0.061 -0.850 -0.523 172 149 122 0 0
0.9415 2.3446 -0.3290 -0.025 -0.840 -0.542 159 133 110 0 0
0.9456 2.3440 -0.3284 -0.025 -0.840 -0.542 152 128 104 0 0
0.9496 2.3433 -0.3277 -0.007 -0.875 -0.484 150 125 101 0 0
0.9538 2.3435 -0.3272 -0.014 -0.895 -0.445 127 96 76 0 0
0.9578 2.3426 -0.3265 0.078 -0.922 -0.379 132 102 80 0 0
0.9619 2.3423 -0.3259 -0.096 -0.925 -0.368 146 122 97 0 0
0.9660 2.3422 -0.3254 -0.033 -0.937 -0.348 162 142 113 0 0
0.9699 2.3411 -0.3247 0.012 -0.950 -0.313 161 141 111 0 0
0.9744 2.3429 -0.3244 0.215 -0.904 -0.369 160 141 111 0 0
0.9788 2.3436 -0.3239 0.250 -0.926 -0.284 166 147 116 0 0
0.9871 2.2372 -0.3057 0.553 -0.475 0.685 174 153 117 0 0
1.0266 2.2387 -0.3007 -0.168 -0.985 0.038 197 210 202 0 0
1.0337 2.2361 -0.2994 -0.347 -0.938 -0.022 188 203 200 0 0
1.0384 2.2390 -0.2992 -0.018 -0.995 0.103 189 204 203 0 0
1.0426 2.2252 -0.2964 -0.643 -0.652 -0.402 184 206 205 0 0
1.0455 2.2217 -0.2955 -0.643 -0.652 -0.402 162 204 201 0 0
1.0487 2.2191 -0.2946 -0.632 -0.690 -0.352 141 204 203 0 0
1.0513 2.2145 -0.2936 0.516 -0.559 -0.649 127 207 207 0 0
1.0564 2.2193 -0.2937 0.516 -0.559 -0.649 121 215 214 0 0
1.0609 2.2217 -0.2934 0.509 -0.621 -0.596 122 226 229 0 0
1.0653 2.2238 -0.2932 0.521 -0.742 -0.422 117 237 242 0 0
1.0696 2.2254 -0.2929 0.574 -0.790 -0.217 122 244 249 0 0
1.0740 2.2274 -0.2926 0.616 -0.787 -0.043 125 249 252 0 0
1.0790 2.2315 -0.2926 0.583 -0.791 0.185 130 252 254 0 0
1.0819 2.2282 -0.2917 0.307 -0.230 0.924 132 254 255 0 0
1.0932 2.2409 -0.2923 0.307 -0.230 0.924 111 253 254 0 0
1.0988 2.2474 -0.2926 0.307 -0.230 0.924 104 253 254 0 0
1.1045 2.2538 -0.2929 0.307 -0.230 0.924 99 253 255 0 0
1.1624 2.2792 -0.2893 0.115 -0.174 0.978 161 214 216 0 0
1.1610 2.2620 -0.2867 0.272 -0.584 0.765 188 219 221 0 0
1.1651 2.2630 -0.2863 0.259 -0.513 0.818 201 217 221 0 0
1.1704 2.2675 -0.2863 0.375 -0.515 0.771 203 217 219 0 0
1.1754 2.2710 -0.2863 0.253 -0.409 0.877 206 219 220 0 0
1.1801 2.2739 -0.2861 0.223 -0.350 0.910 205 220 221 0 0
1.1851 2.2773 -0.2860 0.223 -0.350 0.910 203 219 219 0 0
-1.2655 1.8575 -0.5466 0.303 -0.834 -0.462 177 149 126 0 0
-1.2607 1.8578 -0.5460 0.259 -0.832 -0.491 176 141 113 0 0
-1.2543 1.8564 -0.5449 0.122 -0.869 -0.480 173 135 104 0 0
-1.2352 1.8578 -0.5426 -0.116 -0.876 -0.468 190 162 134 0 0
-1.2290 1.8566 -0.5416 -0.141 -0.886 -0.443 213 196 177 0 0
-1.2246 1.8573 -0.5411 0.146 -0.872 -0.468 181 155 126 0 0
-1.2096 1.8630 -0.5401 0.651 -0.626 -0.429 170 140 106 0 0
-1.2071 1.8658 -0.5402 0.671 -0.645 -0.364 178 160 142 0 0
-1.2007 1.8698 -0.5400 0.219 -0.853 -0.473 184 176 171 0 0
-1.1963 1.8706 -0.5395 0.283 -0.838 -0.467 112 102 100 0 0
-1.1938 1.8733 -0.5397 0.563 -0.728 -0.391 72 62 55 0 0
-1.1908 1.8756 -0.5396 0.563 -0.728 -0.391 53 43 34 0 0
-1.1882 1.8784 -0.5397 0.577 -0.726 -0.373 45 37 29 0 0
-1.1920 1.8882 -0.5418 0.706 -0.627 -0.330 42 37 28 0 0
-1.1880 1.8894 -0.5415 0.488 -0.773 -0.406 40 36 27 0 0
-1.1521 1.8891 -0.5367 0.076 -0.889 -0.451 31 25 19 0 0
-1.1472 1.8892 -0.5361 0.076 -0.889 -0.451 44 32 25 0 0
-1.1422 1.8893 -0.5354 0.076 -0.889 -0.451 98 75 55 0 0
-1.1632 2.3808 -0.6182 -0.289 -0.931 -0.221 43 34 25 0 0
-1.1554 2.3783 -0.6168 -0.363 -0.910 -0.201 44 35 26 0 0
-1.0942 2.3586 -0.6054 0.734 -0.148 -0.663 45 35 26 0 0
-1.1003 2.3941 -0.6120 -0.387 -0.641 -0.663 47 37 28 0 0
-1.0741 2.3816 -0.6065 0.129 -0.641 -0.756 40 31 22 0 0
-1.0694 2.3835 -0.6062 -0.027 -0.808 -0.588 40 31 22 0 0
-1.0017 2.3337 -0.5891 0.810 -0.499 0.308 42 35 25 0 0
-1.0452 2.5783 -0.6347 0.124 -0.222 -0.967 88 72 56 0 0
-1.0381 2.5769 -0.6335 0.022 -0.280 -0.960 98 79 65 0 0
-1.0267 2.5683 -0.6306 0.046 -0.270 -0.962 106 88 72 0 0
-0.8909 2.4089 -0.5867 0.023 -0.258 -0.966 90 85 76 0 0
-0.8764 2.3938 -0.5823 0.023 -0.258 -0.966 87 81 75 0 0
-0.8621 2.3788 -0.5780 0.009 -0.269 -0.963 82 75 72 0 0
-0.8334 2.3485 -0.5693 0.009 -0.269 -0.963 68 56 50 0 0
-0.7634 2.2833 -0.5494 -0.367 -0.927 0.073 155 137 121 0 0
-0.7590 2.2852 -0.5491 0.069 -0.957 -0.283 173 156 144 0 0
-0.7537 2.2855 -0.5484 0.302 -0.914 -0.272 183 166 157 0 0
-0.7549 2.2977 -0.5506 0.520 -0.629 -0.577 183 166 157 0 0
-0.7509 2.3004 -0.5505 0.453 -0.649 -0.611 182 166 158 0 0
-0.6978 2.2827 -0.5406 0.462 -0.878 -0.126 181 168 160 0 0
-0.5152 2.2914 -0.5178 0.143 -0.931 -0.336 172 164 157 0 0
-0.4150 2.8122 -0.5893 0.839 -0.430 -0.332 57 51 47 0 0
-0.4040 2.8168 -0.5886 -0.446 -0.362 0.818 67 58 51 0 0
-0.3196 3.8323 -0.7427 -0.138 -0.745 0.653 117 102 89 0 0
0.0365 2.3218 -0.4496 0.220 -0.971 -0.090 159 152 140 0 0
0.0406 2.3260 -0.4498 -0.088 -0.969 -0.231 141 134 126 0 0
0.0455 2.3254 -0.4490 -0.088 -0.969 -0.231 112 104 101 0 0
0.1172 2.2417 -0.4259 -0.465 -0.860 -0.210 53 52 48 0 0
-0.0075 3.8302 -0.7010 -0.705 -0.655 0.272 39 36 33 0 0
0.0015 3.8217 -0.6984 -0.705 -0.655 0.272 51 46 41 0 0
0.0105 3.8122 -0.6957 -0.658 -0.676 0.331 145 133 124 0 0
0.0261 3.8119 -0.6935 -0.264 -0.929 0.261 155 141 132 0 0
0.2084 2.3245 -0.4273 0.872 -0.489 0.034 156 144 135 0 0
0.2308 2.3358 -0.4262 0.601 -0.734 0.316 168 159 150 0 0
0.2351 2.3395 -0.4262 0.527 -0.810 0.257 170 161 154 0 0
0.2394 2.3433 -0.4262 0.344 -0.861 0.374 171 162 155 0 0
0.2444 2.3408 -0.4252 -0.428 -0.878 0.214 169 158 152 0 0
0.2546 2.3334 -0.4226 0.024 -0.991 0.134 165 155 147 0 0
0.3105 2.3360 -0.4156 0.993 -0.043 0.111 171 160 154 0 0
0.3127 2.3717 -0.4212 0.993 -0.043 0.111 170 159 153 0 0
0.5664 2.3580 -0.3853 -0.802 -0.593 0.076 168 163 161 0 0
0.5757 2.3640 -0.3851 0.632 -0.773 -0.055 64 66 62 0 0
0.5804 2.3678 -0.3851 0.632 -0.773 -0.055 59 61 57 0 0
0.5847 2.3654 -0.3841 -0.127 -0.989 0.076 59 61 56 0 0
0.5892 2.3648 -0.3834 -0.499 -0.821 0.276 62 64 59 0 0
0.6040 2.3894 -0.3855 0.393 -0.918 -0.052 53 55 50 0 0
0.6087 2.3914 -0.3852 0.393 -0.918 -0.052 52 53 48 0 0
0.6134 2.3947 -0.3851 -0.044 -0.998 -0.040 48 49 44 0 0
0.6270 2.3949 -0.3833 0.078 -0.995 -0.061 33 29 23 0 0
0.6316 2.3967 -0.3830 0.471 -0.879 0.079 37 32 26 0 0
0.6357 2.3907 -0.3815 0.155 -0.893 -0.422 36 31 24 0 0
0.6404 2.3936 -0.3813 -0.461 -0.798 -0.387 35 32 26 0 0
0.8634 2.3536 -0.3453 0.264 -0.753 -0.603 162 136 118 0 0
0.8674 2.3522 -0.3445 -0.099 -0.720 -0.686 160 133 105 0 0
0.8715 2.3509 -0.3437 -0.099 -0.720 -0.686 153 123 89 0 0
0.8757 2.3506 -0.3431 -0.002 -0.779 -0.627 147 120 88 0 0
0.8874 2.3455 -0.3407 0.576 -0.817 0.028 166 139 105 0 0
0.8968 2.3503 -0.3403 -0.073 -0.793 -0.605 161 137 104 0 0
0.9047 2.3476 -0.3388 -0.025 -0.847 -0.531 170 147 114 0 0
0.9088 2.3470 -0.3382 0.036 -0.852 -0.522 164 140 109 0 0
0.9127 2.3455 -0.3374 0.159 -0.934 -0.320 148 120 93 0 0
0.9172 2.3468 -0.3370 0.248 -0.899 -0.360 168 143 113 0 0
0.9208 2.3440 -0.3361 -0.065 -0.977 -0.201 164 142 108 0 0
0.9249 2.3436 -0.3355 -0.065 -0.977 -0.201 172 150 116 0 0
0.9292 2.3442 -0.3350 0.188 -0.910 -0.370 172 148 115 0 0
0.9340 2.3473 -0.3349 0.061 -0.850 -0.523 169 146 112 0 0
0.9382 2.3472 -0.3343 0.061 -0.850 -0.523 171 147 120 0 0
0.9464 2.3465 -0.3331 0.003 -0.863 -0.505 151 126 97 0 0
0.9505 2.3462 -0.3325 0.003 -0.863 -0.505 147 120 94 0 0
0.9546 2.3459 -0.3319 -0.014 -0.895 -0.445 120 89 68 0 0
0.9587 2.3453 -0.3313 0.141 -0.968 -0.206 137 108 83 0 0
0.9627 2.3448 -0.3307 -0.054 -0.971 -0.232 161 135 110 0 0
0.9667 2.3437 -0.3300 -0.033 -0.968 -0.251 166 143 114 0 0
0.9708 2.3434 -0.3294 -0.033 -0.968 -0.251 167 146 118 0 0
0.9752 2.3450 -0.3290 0.215 -0.904 -0.369 167 148 119 0 0
0.9796 2.3460 -0.3286 0.147 -0.911 -0.384 168 148 118 0 0
0.9847 2.3502 -0.3286 -0.230 -0.645 -0.729 170 150 120 0 0
0.9880 2.3463 -0.3276 -0.373 -0.536 -0.757 170 150 121 0 0
1.0295 2.3474 -0.3222 0.111 -0.969 -0.221 164 149 120 0 0
1.0338 2.3480 -0.3218 0.127 -0.922 -0.367 185 171 145 0 0
1.0357 2.3391 -0.3201 -0.785 -0.471 -0.403 188 174 151 0 0
1.0113 2.2229 -0.3044 0.461 -0.357 0.812 185 170 148 0 0
1.0168 2.2292 -0.3047 0.461 -0.357 0.812 178 164 148 0 0
1.0271 2.2396 -0.3050 0.276 -0.770 0.575 198 202 196 0 0
1.0345 2.2380 -0.3038 -0.179 -0.974 0.135 197 208 204 0 0
1.0386 2.2386 -0.3033 0.077 -0.984 0.158 192 205 202 0 0
1.0431 2.2409 -0.3031 0.086 -0.916 0.392 186 202 200 0 0
1.0471 2.2414 -0.3026 0.034 -0.942 0.335 187 202 201 0 0
1.0486 2.2321 -0.3009 -0.790 -0.612 -0.028 191 204 203 0 0
1.0519 2.2299 -0.3002 -0.723 -0.661 -0.203 188 207 205 0 0
1.0531 2.2199 -0.2984 0.513 -0.583 -0.631 175 206 206 0 0
1.0579 2.2237 -0.2983 0.519 -0.619 -0.590 162 204 204 0 0
1.0629 2.2279 -0.2984 0.519 -0.619 -0.590 147 204 204 0 0
1.0656 2.2238 -0.2973 0.574 -0.790 -0.217 132 205 205 0 0
1.0704 2.2272 -0.2973 0.574 -0.790 -0.217 125 212 213 0 0
1.0744 2.2277 -0.2968 0.643 -0.765 0.037 118 221 224 0 0
1.0792 2.2313 -0.2968 0.689 -0.725 0.023 119 228 232 0 0
1.0898 2.2280 -0.2948 0.333 -0.207 0.920 99 244 248 0 0
1.0958 2.2356 -0.2953 0.333 -0.207 0.920 96 245 251 0 0
1.1018 2.2429 -0.2957 0.257 -0.179 0.950 98 246 252 0 0
1.1078 2.2505 -0.2961 0.283 -0.174 0.943 96 246 250 0 0
1.1266 2.2361 -0.2913 0.420 -0.771 0.479 94 239 243 0 0
1.1311 2.2383 -0.2910 0.603 -0.713 0.358 93 233 236 0 0
1.1463 2.2506 -0.2910 0.638 -0.726 0.256 165 211 213 0 0
1.1514 2.2548 -0.2910 0.459 -0.783 0.419 192 213 216 0 0
1.1564 2.2585 -0.2910 0.112 -0.730 0.674 198 214 216 0 0
1.1606 2.2595 -0.2906 0.101 -0.755 0.648 200 216 217 0 0
1.1731 2.2627 -0.2894 0.257 -0.367 0.894 204 218 219 0 0
1.1778 2.2655 -0.2893 0.142 -0.382 0.913 206 220 221 0 0
1.1864 2.2683 -0.2886 0.428 -0.687 -0.587 209 223 223 0 0
-1.2670 1.8596 -0.5515 0.303 -0.834 -0.462 182 159 142 0 0
-1.2623 1.8601 -0.5510 0.261 -0.841 -0.473 176 143 115 0 0
-1.2375 1.8609 -0.5478 -0.116 -0.876 -0.468 188 155 122 0 0
-1.2312 1.8596 -0.5467 -0.135 -0.887 -0.441 215 197 174 0 0
-1.2255 1.8589 -0.5459 0.049 -0.873 -0.485 192 172 148 0 0
-1.2108 1.8649 -0.5449 0.735 -0.535 -0.416 171 137 100 0 0
-1.2081 1.8675 -0.5450 0.671 -0.645 -0.364 175 152 132 0 0
-1.2054 1.8700 -0.5450 0.622 -0.694 -0.362 189 175 166 0 0
-1.1978 1.8728 -0.5445 0.283 -0.838 -0.467 140 131 128 0 0
-1.1948 1.8751 -0.5445 0.563 -0.728 -0.391 79 68 63 0 0
-1.1922 1.8778 -0.5446 0.577 -0.726 -0.373 55 45 37 0 0
-1.1892 1.8801 -0.5445 0.577 -0.726 -0.373 46 39 29 0 0
-1.1884 1.8849 -0.5452 0.575 -0.695 -0.431 41 35 27 0 0
-1.1891 1.8913 -0.5464 0.488 -0.773 -0.406 37 33 24 0 0
-1.1538 1.8916 -0.5417 0.161 -0.852 -0.497 30 24 17 0 0
-1.1492 1.8922 -0.5412 0.161 -0.852 -0.497 33 24 17 0 0
-1.1447 1.8928 -0.5407 0.161 -0.852 -0.497 80 62 45 0 0
-1.0961 2.3978 -0.6175 -0.642 -0.694 -0.325 50 40 30 0 0
-1.0719 2.3883 -0.6127 -0.027 -0.808 -0.588 39 31 21 0 0
-1.0458 2.6339 -0.6497 0.005 -0.275 -0.961 108 83 58 0 0
-0.8531 2.4150 -0.5880 0.009 -0.269 -0.963 84 77 73 0 0
-0.8433 2.4080 -0.5856 0.038 -0.254 -0.967 82 73 67 0 0
-0.7958 2.3633 -0.5719 0.068 -0.235 -0.970 75 65 59 0 0
-0.6790 2.2998 -0.5459 0.198 -0.611 -0.766 181 170 161 0 0
-0.6769 2.3063 -0.5467 -0.026 -0.697 -0.716 180 170 161 0 0
-0.6745 2.3123 -0.5474 -0.040 -0.835 -0.548 182 171 163 0 0
-0.5352 2.2902 -0.5252 0.723 -0.210 -0.658 199 192 185 0 0
-0.4159 2.8172 -0.5962 0.829 -0.395 -0.395 63 54 52 0 0
-0.4078 2.8111 -0.5941 -0.290 -0.328 0.899 62 53 51 0 0
-0.3158 2.8779 -0.5929 0.252 -0.954 -0.159 171 164 155 0 0
-0.3128 3.8035 -0.7450 -0.398 -0.377 0.836 128 112 99 0 0
-0.3081 3.8197 -0.7471 -0.547 -0.665 0.509 132 118 104 0 0
0.0369 2.3223 -0.4545 0.220 -0.971 -0.090 161 153 143 0 0
0.0415 2.3238 -0.4541 0.193 -0.955 -0.226 151 143 135 0 0
0.0458 2.3266 -0.4540 -0.088 -0.969 -0.231 138 130 122 0 0
0.0508 2.3259 -0.4532 -0.088 -0.969 -0.231 157 150 140 0 0
0.0275 3.8068 -0.7003 -0.232 -0.855 0.464 155 142 134 0 0
0.2090 2.3235 -0.4318 0.881 -0.450 0.146 157 144 136 0 0
0.2271 2.3301 -0.4305 0.310 -0.951 -0.022 166 155 147 0 0
0.2314 2.3345 -0.4306 0.597 -0.774 0.209 167 158 150 0 0
0.2357 2.3379 -0.4306 0.597 -0.774 0.209 170 161 156 0 0
0.2401 2.3417 -0.4306 0.439 -0.887 0.144 174 165 160 0 0
0.2451 2.3384 -0.4294 -0.344 -0.936 -0.078 172 161 155 0 0
0.2497 2.3396 -0.4290 0.354 -0.935 -0.032 165 155 147 0 0
0.2550 2.3341 -0.4274 0.013 -0.990 -0.139 164 154 145 0 0
0.3107 2.3388 -0.4208 0.994 -0.037 0.103 170 160 152 0 0
0.3131 2.3711 -0.4258 0.993 -0.043 0.111 170 159 153 0 0
0.3773 2.6621 -0.4652 0.958 -0.192 -0.214 185 176 169 0 0
0.5761 2.3642 -0.3897 0.659 -0.750 -0.054 64 66 63 0 0
0.5808 2.3685 -0.3898 0.632 -0.773 -0.055 59 61 57 0 0
0.5851 2.3650 -0.3886 -0.127 -0.989 0.076 59 61 56 0 0
0.6044 2.3899 -0.3902 0.393 -0.918 -0.052 53 55 50 0 0
0.6091 2.3918 -0.3899 0.406 -0.913 -0.049 51 53 47 0 0
0.6138 2.3949 -0.3897 -0.044 -0.998 -0.040 48 49 43 0 0
0.6274 2.3952 -0.3880 0.078 -0.995 -0.061 33 29 24 0 0
0.6320 2.3961 -0.3875 0.310 -0.951 0.012 37 32 26 0 0
0.6362 2.3915 -0.3862 0.134 -0.904 -0.405 36 31 25 0 0
0.6410 2.3957 -0.3863 -0.461 -0.798 -0.387 36 31 27 0 0
0.9019 2.3535 -0.3446 -0.024 -0.782 -0.623 127 106 78 0 0
0.9056 2.3506 -0.3437 -0.025 -0.847 -0.531 143 122 93 0 0
0.9093 2.3478 -0.3427 0.022 -0.923 -0.385 156 134 104 0 0
0.9133 2.3467 -0.3420 0.164 -0.952 -0.258 159 136 107 0 0
0.9177 2.3479 -0.3416 0.228 -0.937 -0.267 165 141 111 0 0
0.9214 2.3451 -0.3407 -0.019 -0.983 -0.184 169 146 112 0 0
0.9255 2.3449 -0.3401 -0.019 -0.983 -0.184 162 135 98 0 0
0.9301 2.3466 -0.3398 0.201 -0.922 -0.331 161 132 90 0 0
0.9350 2.3503 -0.3397 0.061 -0.850 -0.523 167 141 103 0 0
0.9392 2.3502 -0.3391 0.079 -0.827 -0.557 167 141 108 0 0
0.9473 2.3489 -0.3379 -0.014 -0.895 -0.445 136 107 75 0 0
0.9514 2.3486 -0.3372 -0.014 -0.895 -0.445 133 103 71 0 0
0.9555 2.3482 -0.3366 -0.014 -0.895 -0.445 119 89 62 0 0
0.9590 2.3451 -0.3357 0.107 -0.994 0.029 148 121 89 0 0
0.9633 2.3456 -0.3352 0.107 -0.994 0.029 164 140 108 0 0
0.9672 2.3447 -0.3345 0.003 -0.998 0.068 165 141 110 0 0
0.9721 2.3478 -0.3344 0.180 -0.965 -0.189 165 141 113 0 0
0.9762 2.3475 -0.3338 0.283 -0.910 -0.301 168 145 116 0 0
0.9808 2.3495 -0.3335 0.175 -0.816 -0.551 165 142 111 0 0
0.9850 2.3502 -0.3330 0.175 -0.816 -0.551 170 147 117 0 0
0.9893 2.3508 -0.3326 0.175 -0.816 -0.551 163 139 107 0 0
0.9942 2.3538 -0.3324 0.417 -0.691 -0.590 153 127 96 0 0
0.9976 2.3508 -0.3315 0.036 -0.821 -0.570 154 127 98 0 0
1.0011 2.3479 -0.3305 0.160 -0.924 -0.348 157 133 103 0 0
1.0177 2.3482 -0.3284 0.038 -0.929 -0.369 175 154 123 0 0
1.0218 2.3481 -0.3278 0.038 -0.929 -0.369 175 157 132 0 0
1.0263 2.3497 -0.3275 0.104 -0.890 -0.445 176 158 131 0 0
1.0303 2.3491 -0.3268 0.201 -0.891 -0.407 170 151 122 0 0
1.0346 2.3499 -0.3264 0.201 -0.891 -0.407 183 167 140 0 0
1.0371 2.3434 -0.3250 -0.499 -0.393 -0.772 186 174 150 0 0
1.0403 2.3397 -0.3240 -0.501 -0.500 -0.706 186 173 149 0 0
1.0430 2.3341 -0.3227 0.184 -0.541 -0.821 183 166 143 0 0
1.0208 2.2286 -0.3083 0.184 -0.731 0.657 172 153 134 0 0
1.0348 2.2378 -0.3079 -0.034 -0.876 0.482 200 200 196 0 0
1.0442 2.2291 -0.3052 -0.735 -0.573 -0.363 190 205 204 0 0
1.0525 2.2166 -0.3021 -0.793 -0.463 -0.396 189 204 202 0 0
1.0569 2.2185 -0.3018 0.643 -0.752 0.146 191 206 204 0 0
1.0611 2.2201 -0.3015 0.475 -0.865 0.161 193 209 208 0 0
1.0656 2.2223 -0.3013 0.406 -0.897 0.176 203 215 216 0 0
1.0700 2.2244 -0.3010 0.474 -0.760 0.445 192 212 213 0 0
1.0740 2.2249 -0.3006 0.731 -0.682 -0.013 155 203 204 0 0
1.0796 2.2316 -0.3009 0.717 -0.659 -0.228 145 205 208 0 0
1.0848 2.2362 -0.3010 0.664 -0.656 -0.359 132 208 210 0 0
1.0855 2.2116 -0.2968 0.275 -0.174 0.946 107 215 213 0 0
1.0913 2.2186 -0.2972 0.275 -0.174 0.946 101 215 213 0 0
1.0972 2.2257 -0.2976 0.294 -0.182 0.938 98 216 214 0 0
1.1030 2.2328 -0.2980 0.275 -0.174 0.946 98 217 215 0 0
1.1276 2.2382 -0.2956 0.522 -0.853 0.006 129 210 209 0 0
1.1323 2.2413 -0.2955 0.532 -0.847 0.016 148 211 210 0 0
1.1370 2.2441 -0.2954 0.549 -0.802 0.235 173 212 211 0 0
1.1418 2.2474 -0.2953 0.549 -0.802 0.235 192 209 209 0 0
1.1471 2.2520 -0.2953 0.459 -0.860 0.222 197 209 210 0 0
1.1516 2.2544 -0.2951 0.192 -0.898 0.396 198 211 212 0 0
1.1561 2.2565 -0.2949 -0.005 -0.839 0.544 201 215 216 0 0
1.1602 2.2574 -0.2945 -0.054 -0.789 0.612 202 217 217 0 0
1.1641 2.2575 -0.2940 -0.054 -0.789 0.612 204 218 218 0 0
1.1673 2.2556 -0.2932 0.735 -0.582 0.347 207 220 221 0 0
1.1747 2.2670 -0.2941 0.775 -0.549 0.313 209 221 222 0 0
1.1810 2.2746 -0.2945 0.827 -0.558 -0.062 208 221 222 0 0
1.1831 2.2692 -0.2934 0.583 -0.656 -0.479 208 221 221 0 0
1.1884 2.2737 -0.2934 0.428 -0.687 -0.587 202 214 214 0 0
1.1934 2.2774 -0.2933 0.456 -0.739 -0.495 198 209 208 0 0
-1.2685 1.8618 -0.5565 0.325 -0.828 -0.457 192 171 160 0 0
-1.2642 1.8627 -0.5560 0.239 -0.854 -0.462 177 150 121 0 0
-1.2516 1.8602 -0.5539 0.085 -0.857 -0.508 170 132 99 0 0
-1.2334 1.8625 -0.5519 -0.116 -0.876 -0.468 203 179 149 0 0
-1.2267 1.8607 -0.5507 -0.073 -0.887 -0.455 202 184 161 0 0
-1.2232 1.8625 -0.5505 0.121 -0.874 -0.470 182 149 120 0 0
-1.2063 1.8716 -0.5498 0.622 -0.694 -0.362 184 170 159 0 0
-1.2038 1.8744 -0.5499 0.462 -0.780 -0.423 188 180 172 0 0
-1.1996 1.8754 -0.5495 0.325 -0.843 -0.429 169 160 153 0 0
-1.1957 1.8767 -0.5492 0.325 -0.843 -0.429 87 75 67 0 0
-1.1917 1.8779 -0.5489 0.353 -0.844 -0.404 59 51 42 0 0
-1.1891 1.8806 -0.5490 0.537 -0.761 -0.363 46 40 31 0 0
-1.1884 1.8855 -0.5497 0.547 -0.752 -0.369 42 36 28 0 0
-1.1902 1.8932 -0.5513 0.488 -0.773 -0.406 42 35 27 0 0
-1.1511 1.8950 -0.5464 0.047 -0.859 -0.510 32 25 19 0 0
-1.1459 1.8949 -0.5456 0.047 -0.859 -0.510 59 45 33 0 0
-1.1663 2.3871 -0.6305 -0.164 -0.876 -0.453 42 33 24 0 0
-1.0962 2.3989 -0.6231 -0.746 -0.666 0.007 52 41 32 0 0
-1.0831 2.3972 -0.6211 0.258 -0.947 -0.193 36 29 20 0 0
-0.8718 2.4814 -0.6069 0.079 -0.239 -0.968 114 103 96 0 0
-0.6737 2.3225 -0.5540 0.332 -0.634 0.699 185 175 168 0 0
-0.6704 2.3268 -0.5543 0.757 -0.567 0.324 189 179 173 0 0
-0.6696 2.3584 -0.5594 -0.440 -0.477 0.761 188 179 170 0 0
-0.6709 2.3724 -0.5620 -0.318 -0.252 0.914 187 179 169 0 0
-0.4924 2.8973 -0.6257 0.549 -0.819 -0.164 183 177 168 0 0
-0.4170 2.8223 -0.6032 0.808 -0.335 -0.484 80 68 60 0 0
-0.1239 2.9964 -0.5931 0.500 -0.433 -0.750 138 124 112 0 0
0.0373 2.3228 -0.4593 0.220 -0.971 -0.090 159 151 141 0 0
0.0419 2.3238 -0.4588 0.220 -0.971 -0.090 158 149 140 0 0
0.0470 2.3229 -0.4580 0.293 -0.955 -0.034 157 147 138 0 0
0.0515 2.3243 -0.4576 0.161 -0.983 -0.083 146 136 127 0 0
-0.2294 3.8781 -0.7543 -0.457 -0.746 -0.485 106 95 88 0 0
-0.0046 3.8199 -0.7146 -0.699 -0.627 0.343 48 43 38 0 0
0.0136 3.7993 -0.7087 -0.758 -0.558 0.338 150 139 130 0 0
0.2275 2.3303 -0.4352 0.310 -0.951 -0.022 163 153 145 0 0
0.2319 2.3337 -0.4352 0.515 -0.857 0.006 167 158 150 0 0
0.2363 2.3371 -0.4351 0.597 -0.774 0.209 171 162 157 0 0
0.2405 2.3416 -0.4353 0.432 -0.895 0.109 174 165 159 0 0
0.2455 2.3391 -0.4342 -0.361 -0.920 -0.150 171 160 153 0 0
0.5672 2.3564 -0.3942 -0.711 -0.702 0.046 128 122 120 0 0
0.5812 2.3692 -0.3945 0.632 -0.773 -0.055 59 61 56 0 0
0.5855 2.3646 -0.3932 -0.127 -0.989 0.076 59 61 56 0 0
0.6049 2.3903 -0.3949 0.393 -0.918 -0.052 53 55 50 0 0
0.6095 2.3923 -0.3946 0.406 -0.913 -0.049 51 53 48 0 0
0.6142 2.3950 -0.3944 -0.044 -0.998 -0.040 49 50 44 0 0
0.6231 2.3925 -0.3928 -0.267 -0.960 -0.086 33 30 25 0 0
0.6278 2.3948 -0.3926 0.307 -0.949 -0.068 33 29 23 0 0
0.6324 2.3962 -0.3922 0.310 -0.951 0.012 38 33 27 0 0
0.6367 2.3932 -0.3911 0.065 -0.939 -0.338 36 31 25 0 0
0.8427 2.1340 -0.3204 0.641 -0.360 0.678 49 37 32 0 0
0.9402 2.3536 -0.3440 0.079 -0.827 -0.557 116 93 72 0 0
0.9445 2.3540 -0.3435 -0.058 -0.835 -0.547 124 101 76 0 0
0.9482 2.3515 -0.3426 -0.068 -0.903 -0.423 129 105 80 0 0
0.9522 2.3509 -0.3420 -0.068 -0.903 -0.423 135 109 82 0 0
0.9563 2.3505 -0.3414 -0.014 -0.895 -0.445 142 114 87 0 0
0.9593 2.3450 -0.3401 0.107 -0.994 0.029 144 117 84 0 0
0.9636 2.3455 -0.3396 0.107 -0.994 0.029 160 131 101 0 0
0.9679 2.3459 -0.3391 0.107 -0.994 0.029 164 133 104 0 0
0.9726 2.3488 -0.3389 0.180 -0.965 -0.189 163 132 100 0 0
0.9769 2.3493 -0.3384 0.283 -0.910 -0.301 162 133 99 0 0
0.9824 2.3553 -0.3387 0.126 -0.731 -0.671 164 139 105 0 0
0.9869 2.3570 -0.3384 -0.008 -0.730 -0.683 167 143 111 0 0
0.9915 2.3589 -0.3381 0.206 -0.630 -0.749 161 135 99 0 0
0.9959 2.3598 -0.3377 0.206 -0.630 -0.749 158 130 95 0 0
0.9990 2.3554 -0.3365 0.061 -0.673 -0.737 156 130 96 0 0
1.0272 2.3521 -0.3322 0.104 -0.890 -0.445 170 150 116 0 0
1.0312 2.3513 -0.3315 0.222 -0.894 -0.390 154 133 98 0 0
