ply
format ascii 1.0
element vertex 718
property float x
property float y
property float z
property uchar diffuse_red
property uchar diffuse_green
property uchar diffuse_blue
end_header
1.1282975207026393 4.870534199691129 1.04978709916386 25 28 22
0.4886876639220006 5.576476144074123 2.764114655840899 161 156 136
-1.8361366200314748 6.48838269468841 3.9704890548235823 212 99 92
-2.0300536974525305 4.5574688173556055 0.41265817013888684 65 66 58
1.4530710502555657 4.56204369367919 1.120554695395035 27 25 18
-0.057788979523524374 7.268229343683288 2.472099457397406 184 185 178
1.7733036966934022 4.336308705105679 1.166463178926513 82 81 76
2.0911553374858443 4.4699443787684805 3.358321473762166 70 145 179
1.4701017534459475 4.520696264994218 1.5662260262400594 176 169 157
0.9366413922791101 4.618773996260281 4.228430416905492 87 201 233
-1.1494569588736685 7.852865056726652 1.8939796293455327 76 62 44
1.3145393962007323 4.864352303498602 -0.07077868116864593 16 19 12
2.202369486850143 4.618882018728711 2.156890327989631 75 71 60
-1.7310859569448558 7.377632028895136 1.5590077649237264 50 51 55
1.85561720232824 4.16665039107331 1.4201417075510947 206 197 172
0.5488002892571676 6.183311012501295 2.0639263666214522 36 37 25
-0.41603927445204447 7.675075801362385 1.228098678798687 171 164 136
-1.5493944709429566 4.824536846766685 0.37561082244224697 54 54 44
-0.06440188498487816 7.370330795245767 2.0523996048690387 184 185 171
1.7052599119962601 6.163824184657651 2.096125492353011 196 196 186
-1.1706111022633539 6.562712235722231 3.2874284054254566 232 234 223
2.0976432788320567 4.539899321046637 3.1169863269278077 65 149 195
2.160902642979575 4.459454388396213 3.2496719076202227 69 158 200
1.975881417531635 4.413954149220499 1.5577078624303295 228 223 217
-2.752772555232177 5.1041132061072725 2.023918157370098 211 179 154
-2.01984842476288 6.4456477565746075 2.248976922787933 211 169 139
2.001605259453395 4.672130669674635 2.84490631925845 236 229 219
1.0978365062543944 4.911270972096028 0.3639930159734828 55 52 43
1.8225236865804275 4.635931204383274 3.4552601840545076 71 74 60
-1.3665347356127935 6.400885268422148 4.402755974041513 62 65 58
-1.8286528206101809 4.483948650414586 0.38622243308591014 60 61 53
1.4211261999712985 4.657665056957503 0.9915673108829653 24 25 19
1.4037520255903742 6.390953200621813 2.0782818514596237 197 197 188
-1.9081430520033178 6.381674303932523 4.284521476717274 184 193 180
2.1530773707224893 4.598754461897578 2.2568155987278953 209 225 226
-2.701407314462943 3.653060429217502 0.7266403561399097 255 254 239
-1.1057117160527172 7.922916533007351 1.8788183595750467 41 41 32
-1.4040215829186453 7.735313246435907 1.139784242477048 72 78 106
-0.01061720950921234 7.341312800268083 1.0352063194513799 40 37 28
1.993994920592388 4.226902595635602 1.17179574617592 39 36 29
-1.3472470583363485 7.390878060982547 1.6706466799999602 56 44 35
1.149096833681375 4.768466852771312 1.2075222484726251 26 27 21
-1.3636076409320677 6.5068592017398155 3.9822991033369575 255 255 249
-1.8415489894916537 4.314455381953045 0.2463769715832518 56 56 46
-1.589392384181663 5.105550845778216 0.519997441793814 54 55 48
2.140476615695467 4.4224583271931275 3.4498305925477104 163 208 213
1.8442990053544377 4.506568624979917 3.6676378983094358 219 214 195
1.3145393962007323 4.864352303498602 -0.07077868116864593 16 19 12
-1.5936264002616471 5.4903315652417595 0.6163569545138572 59 60 54
1.3942294578443368 4.500549901933024 3.7933124436866965 68 64 55
-1.473889998489447 7.230193870600251 1.726590494834732 63 62 63
-0.3219023635160859 5.76220551705943 3.2336278706243906 80 76 65
-1.9297003633354484 6.740847743374831 3.3696894580205394 215 218 210
0.23826731003968657 4.8969736325289865 4.105786297403093 147 151 136
1.8868317522036095 4.873968887968486 -0.24526176550388384 21 24 14
2.0700567004623105 4.507365597042383 3.229432852695673 239 233 220
2.4585222512243448 5.167158533656135 2.422880470755971 53 56 49
-1.9437886392499273 6.712738121796124 3.460388847676324 217 220 213
-1.8635206148893706 6.445044409709451 2.2691609490148257 208 169 140
1.9838111869882684 4.468466602926585 3.4372997414987965 158 195 204
1.697261427414478 4.378775830735256 1.168114205416641 87 104 100
2.273267773821906 4.362400593535047 3.3705823747746755 87 113 118
1.9192869354711841 4.444977785621753 3.6500397908973907 125 179 203
1.0756925867120137 6.638867521038891 2.1603004622886792 170 168 153
-2.769599587227152 4.978036018269627 2.3481194836398367 80 80 72
0.86340481874813 6.087418200661069 4.965722245266168 130 219 251
2.478460523820524 4.380629106516641 2.197969740663065 144 172 174
1.8468284227647978 4.280620584723381 1.163703192229369 27 27 19
-1.6125435504434174 7.004069334200211 0.9909223895614573 97 99 90
-1.7735108108632163 4.598547367666133 0.4174054054505226 56 57 51
-1.892369258882108 6.3509169614068215 4.58875424116423 72 81 79
1.838313439615348 5.052261687893724 0.6075137848737718 52 50 44
-1.7465711121988292 7.29787344819446 1.582217879030392 58 60 59
1.5038086229934697 6.335897460003588 2.121201886710372 200 200 190
1.614988191732474 4.367022329042506 1.4894095279440873 121 39 36
-0.623896000786746 6.401430800525027 2.739005013236182 238 236 228
-1.8635206148893706 6.445044409709451 2.2691609490148257 208 169 140
-0.18291608965130524 7.09613001294145 1.450834278344568 45 42 32
-2.2325472658680545 4.468826366800547 0.3198661929472769 64 64 54
-1.814335309114845 6.65483979264113 3.5941850584348356 189 184 178
2.2682212106217725 4.221651764098602 4.122148451574228 225 222 214
-2.82235012905234 3.878574430691325 0.861516993476067 120 123 102
-1.445230721331517 7.245311925626447 1.4813471217914478 55 61 71
2.125778189926764 4.488443603437228 3.1943477945617347 247 246 226
-1.8287990833176944 6.722606891402271 3.5297560296088184 187 183 172
-2.715117365314995 3.7978586489806543 0.7717651200667843 119 121 107
-1.6486256504903996 6.883714394687515 1.0795977698665078 232 225 194
1.8080849227594302 4.540946612304228 3.6662982920117035 214 208 190
1.8627920970430958 4.5282903065099775 3.561165956976238 219 219 201
-1.8162274316932332 4.340479023838917 0.36029694786770944 74 75 67
1.1058827349874543 6.611379530847243 1.9472177008823073 175 173 158
-2.2022345853702334 5.942056787409535 2.4660795500449013 209 172 143
2.1000433735124404 4.540590571808083 3.1986310254658674 70 150 191
2.0799454744176087 4.542176166069014 2.8856632278409857 57 145 188
1.3674997251154843 4.70936444053566 1.0135534505410402 37 36 31
-2.431204845923629 5.565161182372781 2.288668519327879 200 159 131
1.581756424828911 4.832501982876893 0.8508206104603594 45 42 35
-2.005269097750701 3.7420191250896866 0.2024532022253192 82 82 70
-0.6233359534534622 7.872583862468659 1.096983410660282 62 58 46
1.0815389538758413 4.758640296494708 0.19166915058622702 146 140 118
-1.9363353700144394 4.474708204139959 0.39747834068572147 65 66 58
-1.2851287932112918 7.124260771516699 2.9382086974117594 106 59 51
-3.1873143184313553 5.285476266712252 2.1629052800331046 133 183 172
-0.623896000786746 6.401430800525027 2.739005013236182 238 236 228
0.1318198226295616 6.752341104375059 2.1263138462335376 192 192 180
-1.6160912481140528 6.378737974506395 0.7888237240006297 68 66 55
2.3455825251430116 4.352870450563973 3.2028252493272342 77 103 128
-1.5450454341415165 7.259237978377717 1.6290723985616251 49 47 51
1.2285572789645538 4.933184069379407 0.4543079474334243 223 220 215
-0.13816367431147478 7.164850771284824 1.2486744366971192 49 43 41
-2.803348263159906 5.053440994766432 2.124488394836097 58 48 41
0.35222515318453934 5.810753091413294 2.616395071983978 117 113 101
-1.7429459740643245 6.860625115466927 3.7383464561202677 172 169 164
-1.620028073309801 4.6417772110257784 0.37590345273863024 49 49 40
-1.5424908537532511 7.272516737534245 1.5654282033053817 170 164 140
-1.9230311099453758 6.785306354383991 0.9515121892542018 86 89 87
-1.0720992861490224 7.885784314747762 1.6077810662361682 39 40 38
2.115682850552206 4.476368569678536 3.2501400558652227 250 242 227
1.6201910351389666 4.446410527427119 1.1467197429223002 48 45 40
1.8329594644395808 4.5463999891195845 3.6583418535245853 218 214 195
-0.9266907420355412 6.4140968813121235 3.770846865346874 123 131 124
-1.9076585111094562 7.508651466307755 1.4703532150504652 56 59 59
1.8992362477681077 4.150544125821554 1.3537724692961042 50 43 33
-0.6780438549283999 7.797288287399929 1.115558663971374 59 55 44
2.225339652092681 4.443638479986086 3.0636775143342097 246 215 9
-2.0714633054554326 6.142415660113178 2.4541132522829314 209 171 142
-1.619128124802201 4.632993369108882 0.3234471811662408 56 56 46
1.0815389538758413 4.758640296494708 0.19166915058622702 146 140 118
-1.7622396113092558 6.3187713167774735 4.355486692985092 226 229 222
2.043877725115667 4.508650132257888 3.246442921001046 66 142 179
-1.8550369603255303 6.454264037175158 4.028337715370794 241 225 220
-0.26111685798090223 7.382682964250411 1.3561385118805398 81 73 83
2.290375779995028 4.365841142857944 3.27578699339686 97 115 122
1.9363869384245853 4.653470708579122 3.0475083771949953 242 236 224
-1.3382800807578559 7.321206815625598 5.1563929030094515 138 137 109
1.971412391986416 4.8124383009817455 2.7243865636177165 25 26 22
-1.2941094096951276 7.600237077016003 1.8599050246534437 48 49 32
2.3565298898000715 4.486172605962792 2.2406519532089217 219 231 231
1.8711050366932567 4.53730849032926 3.5080509320328566 224 222 209
-1.512609190567919 6.526668041531788 4.353836304607661 158 149 115
1.3808958291081088 4.570873341764995 1.125814680483538 21 20 15
2.3131499568673126 4.420024016252548 3.1148528196959893 94 120 133
-0.7823570249877827 6.385760803654557 0.7882060451414685 38 39 32
0.965761298497252 5.056722381627346 0.5214984599118734 48 48 40
1.5257368894094632 6.322763317095821 2.01685718620248 196 196 186
0.1939348240834445 5.100407064528962 4.032221702272725 49 45 42
1.3690853430548073 4.466765890838036 0.3046529712726409 19 20 13
1.8698983810238439 4.344374992457016 0.93902722127003 28 28 20
2.1597978493514485 4.292988175316448 3.910142817084828 102 120 158
-1.8419241256061754 5.336149576365563 0.5848549068147734 47 48 40
1.122304908859846 4.695658551671477 1.2998704474247134 30 31 25
1.070714862993275 4.7528875972461035 1.2954157109386475 30 29 24
-1.032326933629423 6.570997893822303 3.275942363849855 63 66 67
2.1141934549116734 4.321336939401437 3.8891874125386403 91 89 79
0.547068035021766 4.854220333484061 4.111789320237449 180 182 164
1.9011507383448616 4.893046288261945 2.8369611872103806 232 166 144
2.2614686114496334 4.365429088728181 3.4047448256906323 236 212 59
1.9023423085693958 4.8235112859136295 2.402104379019975 87 144 154
-1.399330780700472 6.416957047857146 3.7514203314367114 242 241 230
1.6249604779675995 6.29743006254427 2.1095971963732345 198 198 188
-1.4639535047058714 7.380153197527035 1.3328178989802728 125 120 114
2.3701645078330786 4.496380528673796 2.065331579697843 231 225 213
-2.809355926661241 5.048755214250784 2.188686418284121 70 55 42
-2.969315451362766 3.9393745386984813 0.8766179185066956 250 248 236
1.0546183417970605 4.82591803364958 1.0824043402671035 29 32 25
-2.7574334403085397 3.6351203983649794 0.7409626427554351 189 198 210
2.0234641533634026 4.303160961926403 3.9709541332250318 53 107 187
-2.3620306601218988 4.3965533441468185 0.864832449320054 76 82 72
-2.463567646066034 5.662770163153186 1.9790037293705507 202 163 132
0.6815963790528935 6.633862509073983 1.078249449010286 188 184 157
2.3048874660940735 4.394541843880251 3.1808684400683025 92 122 133
1.254687966521113 4.899015373140386 1.0841069668032286 24 25 19
-1.7637227791535146 5.231864387142687 0.5658967965887988 55 58 49
2.159488028611694 4.410459573240502 3.4850604382241666 24 35 45
-1.5872249019100435 6.710886837894148 2.6404353685582986 45 40 33
-2.70353333845189 5.1742513860307255 2.2390938589611036 213 181 156
1.0551772009731715 5.421093835288197 2.3250125438714004 239 232 222
1.1089053077349935 4.902286138473606 -0.3903540136330052 30 26 15
-1.295244967180246 7.248102927235307 3.056653330192802 79 77 68
2.001174067181934 4.566546468283252 3.1298358210503436 75 143 180
2.2836445973190864 4.5028305793591095 2.197594669440918 122 169 180
-2.0300536974525305 4.5574688173556055 0.41265817013888684 65 66 58
-1.2038889385747522 8.089619710156049 1.3927670167691928 31 35 40
-1.4091750027038632 7.584116737110854 1.0743054946329715 211 206 200
1.3245144547507177 4.566658245768956 1.2791264232860373 92 86 54
-0.5987878621742085 6.0197097550256 3.046031260343751 109 110 102
-2.8884294353148543 4.025154071580312 0.8786299831065904 150 153 134
1.998568646577051 5.3201286003548365 1.8340647104769507 28 18 16
0.2258102133658243 5.732972321723543 2.6278678561477884 123 121 109
0.929881820965359 4.670765024142666 4.283053552212752 62 107 139
1.0026168016252095 5.023092016756318 0.5036801954946467 42 42 34
-2.1013984695790926 6.382032136411179 4.683066525618221 146 198 192
2.225339652092681 4.443638479986086 3.0636775143342097 246 215 9
0.461041938510255 7.206211042437432 1.071104626756627 188 182 156
0.49414106930968793 5.687380325844379 2.4548691016299706 151 152 138
2.0370401734814365 4.570900261386506 3.020649547347594 67 140 184
-1.7909691969192802 6.464434687000939 4.021031677719917 217 211 207
1.8628257588629684 4.196288094908712 1.2915694894086387 28 28 20
0.6874365484468814 5.881210282872997 4.925527981339551 143 145 140
2.2350167348427656 4.536931440563245 2.5542154677599402 75 72 65
-2.263664305407991 6.549710393949305 4.44801575553595 132 188 182
-1.033223083040101 6.494118900731139 2.834064447917235 112 61 51
-2.1671580153907555 7.168970623767869 3.0791655136682703 62 90 76
-1.7191423836474997 6.440536011622891 4.006187041891957 209 205 196
-2.73360187699764 3.8921194326480335 0.835379429255148 231 230 216
1.8847568479199073 4.5545675406129575 3.453420063873323 226 224 211
1.7747120082958805 4.316065662085991 1.2554906548648554 205 250 15
-1.1494569588736685 7.852865056726652 1.8939796293455327 76 62 44
-1.0853533217737545 7.401309045486765 1.1126471055737222 209 202 198
0.49956067776492963 5.661058949452508 2.563737957660254 227 222 211
-1.5374956830819178 6.620279071761356 4.072154156982619 243 238 227
2.110647985480307 4.470985339686496 3.330594817351605 237 240 226
1.7747120082958805 4.316065662085991 1.2554906548648554 205 250 15
-1.619128124802201 4.632993369108882 0.3234471811662408 56 56 46
-1.4091750027038632 7.584116737110854 1.0743054946329715 211 206 200
-1.910315857531626 6.389686306385747 4.195974752830639 33 46 75
-2.1654451516162685 6.568997295178623 4.515977199885625 71 108 94
0.7450257698437688 6.49303492038953 0.996313963764629 238 239 226
-2.285881103309292 5.68306815766372 2.5482752387885546 77 72 65
-2.5612171795515923 5.437744039162362 2.4399446552661876 74 68 62
-0.722372245581666 6.4703239563335595 2.67734451650603 94 86 78
1.131436957917387 4.736833809172094 0.22350189109302968 39 33 19
-1.1123501519028567 6.540340935432319 3.369218154251696 67 84 103
-1.9292536586741693 7.0435118878235725 1.1953586936717835 59 55 45
0.4886759916389838 6.542565754034798 0.7890368820630712 50 48 39
2.20638349631957 4.477341983912639 3.1020498884285006 18 44 59
2.027737917322974 4.496593470072705 3.2782879209135576 231 229 212
2.015570838600784 4.471391711302854 3.3815909867423666 227 225 212
0.26351452838715467 7.0200108285939296 0.4679745430766702 61 59 47
-1.0766141452701214 6.630854323564394 4.338617425790333 75 75 63
-0.8482729131080281 6.291970343817552 0.7531388858602015 206 201 182
-2.0143832788336713 6.786668964213722 3.434699114790762 50 69 145
0.6462955485957371 4.898468024535865 3.955173152412646 55 52 46
0.46768344693750974 5.035643141686824 4.010033667572505 54 49 47
1.7628046233908974 4.230116914645061 1.4364346739901117 194 183 165
-2.3069352770780527 6.938266028297609 3.518868744420463 125 182 175
2.035292097258798 4.913605979410764 -0.3084616384660678 46 46 34
-0.982428593390608 6.595314049592456 3.3558521912313366 127 124 111
0.49956067776492963 5.661058949452508 2.563737957660254 227 222 211
-2.3392679733568635 5.800309034961665 2.120847519496448 218 182 148
1.7747120082958805 4.316065662085991 1.2554906548648554 205 250 15
1.0921345590855012 4.739312229515796 1.2611232735443592 21 23 18
0.3198181210312971 8.182243150859275 -1.9049470814063683 102 83 51
-1.5955234055647511 6.86885097085985 3.6817361595473437 77 77 74
0.3074599731861771 5.144220225472841 0.44540836219543367 56 53 38
2.0492783945894235 4.708847693267006 2.287056990402375 180 200 204
-1.0937864409655762 5.516594511573985 0.5848530324757208 57 53 44
-1.0604046121476733 5.737939263484055 0.6591283059597325 74 138 140
1.7015962086850511 4.894862406080966 2.5521967613141623 106 102 91
0.8862091023498325 4.7004734628003755 4.204388742910291 109 204 236
1.9753646641462803 4.468843003138911 3.3959117313540195 78 136 174
2.047057181306431 4.714559899163282 2.2503017134577035 138 182 193
0.5115047780923195 5.656346421326022 2.5919588041379895 226 222 207
-1.2582388324220835 7.853677754404545 1.2966975178570783 63 68 97
-0.049516134578462 7.201964834271687 1.5484786427517805 46 41 31
0.15798187750578632 7.043774356324336 3.0206655610650306 52 51 46
1.9111828042726156 4.221003053070713 1.2717447859352624 28 25 20
0.2417954063937971 6.713285721277946 2.16058693802693 114 135 79
1.3326999610163186 6.4019836890627095 2.1569483755455194 188 186 174
2.008776737922003 4.49794902928083 3.2433081734354063 72 139 176
-1.5590926266920557 5.2135324125531755 0.5602553533016076 57 58 52
-1.7429353566853216 6.686510182339403 2.3180982537534858 207 166 136
0.503583126434374 5.694677928986675 2.505770438251449 211 206 195
-1.3000878576085888 5.812733144273262 0.6786987758147828 98 98 91
2.020935979594285 4.587711549427785 3.0594640982067407 169 210 221
0.5688344322478968 6.818248197243525 2.369219430305206 202 204 193
-2.1217358816643492 6.026139819048045 2.432107396759015 209 170 141
-1.932453754228374 6.372212086390776 4.522536948722375 33 43 38
2.3048874660940735 4.394541843880251 3.1808684400683025 92 122 133
1.448538422393134 4.533655867932984 1.1754332480634448 37 33 22
-2.825206968663384 5.137694239961386 1.9326149719088679 134 102 83
-1.1706111022633539 6.562712235722231 3.2874284054254566 232 234 223
1.1309321189514938 4.891158804206305 0.4372841092765797 228 223 219
1.8529790387580323 4.516153444609907 3.611012491237927 219 218 205
-2.5491222394138817 5.4047344942535185 2.358253939251797 216 180 154
-2.3885062136194715 4.805881503053822 0.3008304903139626 154 156 145
-2.1002433360093704 4.4228448982086315 0.3690910204079762 66 67 59
-2.5612171795515923 5.437744039162362 2.4399446552661876 74 68 62
1.347075308998562 4.785273820293909 1.3492955066155257 33 30 23
-2.4608097088722167 8.53610795651597 -1.923931383902042 102 87 58
-2.211933513730394 5.894584868883347 2.404001392738583 208 171 145
-1.6485146074800388 6.706719218880436 2.693824325902554 201 162 131
-2.29102119089781 4.717891847212592 1.0078125229262844 102 98 82
1.9975801301417024 4.7152409384053335 2.737549455174381 231 227 216
1.5228999889685866 4.911901453500431 2.8535245850542723 30 31 25
-0.4681789437082628 7.6402653467016215 1.062996900319675 48 46 34
-1.5817396807437436 7.248241114703372 1.4907830278260303 62 71 86
1.1309321189514938 4.891158804206305 0.4372841092765797 228 223 219
-1.2161532021174537 7.516359934328057 1.5344038353354315 58 63 90
-1.4822410610670835 6.520346090644493 0.8579739578739861 63 63 57
1.9277081093452135 4.888768981987497 2.8023908731829277 91 85 78
0.19887565156543838 5.230970703420406 0.4559435567138934 58 54 43
1.3311813942404416 5.539728163499578 2.4640973307203273 31 26 18
1.5673928615414894 4.359753752112626 1.4749245529964417 132 106 88
2.0323433408753493 4.253540961239251 4.085862754043341 121 163 197
-1.1173081561823546 6.6348735261694145 2.8024697837863237 198 115 95
-0.9053362186879487 6.540400641742436 3.3536923662168077 167 155 145
-2.495686360402048 5.585832087876779 2.0504491298308496 212 177 149
0.026385004714506593 7.130755955878806 1.1803861462074081 102 95 79
-1.0768576281431979 6.64742998633325 4.267705760228998 78 79 65
0.44685620154109645 8.202836703631785 0.9141106177538707 175 170 140
-2.938964092738167 4.035404157062271 0.9223108649378097 131 135 120
0.6837576436585312 7.072406112381681 1.511773952603996 195 193 178
2.250445358447575 4.4011767174273 3.1958001030619387 234 229 213
-2.3444709289939256 4.756553508247333 1.0236737434399652 83 81 69
-0.7964148222653888 6.888613654007093 5.374941725684223 176 179 142
-1.113838048295353 6.501316013885285 4.301382465884657 83 83 71
1.754580815859878 4.360071136061593 1.11830324061357 35 36 30
2.1838607379353263 4.483468642020101 3.0613861020415873 180 220 230
2.28279988000139 4.3901437586071985 3.211306431697707 238 233 215
-1.9907148542026298 6.423585303587918 4.360955521277925 32 43 63
1.117223928629807 6.521748209934346 2.0941905846254985 179 180 164
0.624464007785496 4.718898221500179 4.141742376639382 68 72 77
1.070714862993275 4.7528875972461035 1.2954157109386475 30 29 24
-1.2727168571103902 7.174718208331653 5.505911104848912 209 211 190
1.8873472714666897 4.890475644028267 2.6704328180444405 136 128 119
-1.2377510696923741 6.346781532036848 4.30240762770043 206 195 82
1.861241375824898 4.818975222727039 -0.2635253322893899 84 87 76
-1.8711546777203854 6.552110536913488 3.7672663104084765 221 223 216
0.618496115019453 6.510527018611059 0.9703444485031361 52 52 40
1.992645898926912 4.1987367165285345 1.2760923149653176 37 34 25
-2.460194522252444 5.558142846485804 2.2182195206854836 213 177 151
2.256551502078344 4.599958727152768 2.0975763706578867 231 225 209
-1.801582862920756 7.372194618450434 1.0910217345794582 202 190 166
-2.6827283832526287 6.3420627967034955 1.2357565998492097 65 85 73
-2.7378915994944393 3.576907017897137 0.659173906830731 255 255 234
-1.1055229695205975 6.66922098567338 2.718496302254816 43 42 37
-1.0332927683153266 8.366829814914817 1.3146797876876952 132 126 100
-2.422836877182965 5.546635681252297 2.481745519402292 75 68 60
-2.6860237748824205 3.674169161829446 0.7886614401605297 117 125 113
-2.0079002963447574 6.796189106134221 0.869078053270766 87 89 81
2.285034314562336 4.503275048315215 3.1170581127232855 69 97 115
-1.352460482418449 7.732226689041685 1.3250894337374814 53 60 81
2.225339652092681 4.443638479986086 3.0636775143342097 246 215 9
2.7032360733828775 4.771698267362425 0.42928812059620397 21 21 12
2.152143881355871 4.485701005190048 3.1713887027293897 75 161 200
-1.6964831576959305 6.321556592225542 0.7461652623093674 59 56 45
-2.422747114968177 5.743062774768038 2.101877219630862 215 178 151
-3.4049462276179296 4.577031805691854 3.2341669202827426 85 88 81
-2.3107969059526097 6.920027649340247 3.65689835061199 127 182 177
2.4371363035904174 4.492601775741432 2.059674327287506 72 64 53
-1.9907537297685378 6.929814801104203 1.1346767967155356 209 197 182
-2.30742231263366 6.001509311724237 2.180878033063126 212 174 144
0.2613675262130438 7.540830913711827 1.0735827326629357 184 179 150
0.3904155424075239 8.004011218801288 -1.8879877886934966 103 84 51
1.7325286920609064 4.3683230619601865 1.1499027730971991 36 35 30
1.033512929704117 4.986329708306656 0.43676468392302437 22 22 16
-1.8503209107319842 6.522892467327691 3.8838962181975893 213 97 84
2.490245274072705 4.4735271204849605 2.0620076345968226 58 51 41
-1.3837087406734976 6.535311801214269 4.2198873682175035 107 163 105
-2.032971606034582 4.757339115774351 0.45909125400480433 74 75 67
0.7577475548479613 4.784241606644471 4.194473325487519 56 49 52
-1.4347300026417502 6.574117387898866 4.120420753016365 219 216 200
2.140981354121302 4.494795034182223 3.3008577908067824 74 158 195
-1.3289933027719747 6.769251815813275 2.774221066092455 201 193 172
-3.411333334625656 5.521640932335067 2.191735697467789 137 187 176
-3.280533280493034 5.468368247803232 1.7815202760403908 134 181 171
2.2608253971645045 4.563392870714538 2.6314224999078326 23 25 22
-1.445230721331517 7.245311925626447 1.4813471217914478 55 61 71
2.044784214884044 4.5212008236178125 3.151457756978356 228 229 216
1.7965852210077315 16.658209103858752 8.951851703350146 151 149 136
-1.2951617622029385 7.611693425550055 1.5111312656624238 59 65 89
-1.1040981609809912 6.596590971785094 3.2692465544257683 63 64 68
-2.1821233401687548 7.158945236745098 1.1928611420838824 109 105 64
-1.181534126940339 6.545682088971691 3.4502302549067507 238 240 226
-1.8911064187257964 6.931438770429498 1.147489986314463 46 43 33
1.9142098984399458 4.775689303768584 2.9921740565982162 98 93 82
-2.6397098919141864 5.303247202103591 2.1804380245749875 213 179 151
-0.41603927445204447 7.675075801362385 1.228098678798687 171 164 136
0.9490875689390319 6.665063076230002 2.205664748347527 171 172 157
2.022069928187783 4.726069686575478 2.700834895200448 231 228 216
1.7035451789684035 4.933726851590315 2.3744268502229167 204 201 190
1.7417700986915645 4.353190363765942 1.2175115672048116 33 27 19
-2.7964120218264994 5.088867760091516 1.8097578131541565 94 107 102
-0.17326973290340678 8.240684227022237 0.3369089814798623 52 48 36
1.7749432258782085 4.575532267269003 3.616298515004239 36 37 31
-1.7970824201968296 4.544237550805494 0.4015733249213678 58 59 51
2.2425399335369938 4.423087185931899 3.2366868823063863 63 94 115
2.3048874660940735 4.394541843880251 3.1808684400683025 92 122 133
1.6584428740401715 5.813913770179704 1.9020444781262213 197 197 187
-2.209927524028734 6.568031543279214 0.8731904239144666 82 87 80
0.9091460365747963 4.704188566438379 0.7218305442481137 40 40 32
2.4729864302486333 6.07696875999163 1.8477347972639544 30 29 24
-2.719958260167804 3.8914948474976128 0.7993855839938385 116 115 100
0.6555799688485563 6.4390507203655245 0.7461880649677646 47 48 35
-3.3806343427743824 4.572828851753075 3.2709389503574045 158 164 154
-1.4934826549361624 7.126726116255051 0.982004900735962 103 102 97
-2.1702392885422097 7.393808892230789 1.287241522817357 50 58 47
-1.3081743490005822 7.688161782116706 1.286586368554608 57 62 91
1.0609535754303472 4.770739839611128 0.22359279056010126 45 37 26
1.8294666406329276 4.535830123817712 3.562046551297018 213 210 191
-2.8404688673287253 3.8485951727028342 0.8125818365066141 213 211 186
2.064591184009138 4.502624864279317 3.270237263836757 235 234 220
-0.4631231596009643 7.394032334207962 1.467172736764317 57 56 50
2.02077265450961 4.373826737649964 3.858082520746394 38 39 33
1.1494556999780194 4.606904255544278 0.32049861796377666 35 33 22
2.2943312492499963 4.217679531940146 3.370592038430273 224 206 41
-0.32375312473584583 5.743777546272883 3.34366649539748 65 62 53
-2.0866438895418655 4.735587209569726 0.4468558119350517 61 62 54
-2.301689057234331 4.9343246060083965 1.0715910673409572 74 70 59
1.3129860862632408 4.542896051293476 1.533761526358941 221 214 195
1.9366667381167721 4.801327444997459 2.3160996384782955 180 204 209
-1.8841593005667592 4.3747310180052805 0.35989333534407614 60 61 53
1.3279004268994192 4.583897513532548 1.5618440035870607 204 188 170
-1.0944650643075562 6.55915788974033 4.111862471334754 48 53 49
1.131436957917387 4.736833809172094 0.22350189109302968 39 33 19
-1.364954296172148 6.273201094557178 0.7528733821091107 80 133 137
-2.6469452659504635 5.2864497866681015 2.268264390858193 213 182 154
1.715127479836437 4.977754293556299 2.704321706622202 122 118 106
1.6341196741729336 4.4275712954691135 1.0879940231698457 19 20 14
-1.2451980394847562 6.445062521880808 4.116308559848154 220 221 213
2.273267773821906 4.362400593535047 3.3705823747746755 87 113 118
1.6805808804115399 4.2360296409495835 0.2649340793642253 22 20 12
-2.301689057234331 4.9343246060083965 1.0715910673409572 74 70 59
0.978186928123145 4.6809444903881205 4.213969094995746 83 201 240
2.245590785818057 4.480989445010262 2.262050410227629 152 191 199
-2.615934648926175 5.692046043392235 2.5247559663386485 48 56 52
-1.1342601097181577 7.852630992255413 1.5978915289846305 66 70 78
-1.392465483062993 7.725370840317458 1.236895945473594 62 68 100
-2.035934542781603 4.62979194863282 0.3216319445524766 60 61 53
2.130746657354728 4.506103374704182 0.2968527049318046 21 19 14
-2.0198484247053745 6.4456477565733294 2.248976923617169 211 169 139
-1.6533520733667888 7.6158906907454185 5.012626892395204 33 39 35
-1.0124205381062141 8.989669323068219 -1.7312590633020106 29 27 21
1.1605438282487919 6.507038515300327 2.1424737042456634 183 184 170
0.6725750280010404 6.999502870115052 1.5990012633783621 194 195 181
-1.5493944709429566 4.824536846766685 0.37561082244224697 54 54 44
-2.6827283832526287 6.3420627967034955 1.2357565998492097 65 85 73
1.398841575063956 4.654600787358675 1.0035257364533552 43 44 37
1.7634687023831863 4.531084886013265 1.56750795415042 235 228 220
-1.6426510698070949 7.49020950422932 3.0836342149357145 78 49 41
1.7280261321581711 6.141064284487946 2.167053664558858 189 189 179
-2.7574334403085397 3.6351203983649794 0.7409626427554351 189 198 210
-0.9307505960889857 6.148734735710717 0.7382192522567277 200 194 166
-0.12362295631647323 7.073927606409781 1.4501270857353763 59 33 20
-0.0982402893213239 5.405576911764437 3.9855799339802513 134 136 131
-2.7378915994944393 3.576907017897137 0.659173906830731 255 255 234
0.9771106035533105 6.671391526922353 2.118349094895007 159 157 136
1.793612731819233 4.513215000825685 3.51572271305807 217 199 83
-1.0574116916746614 7.309816206068927 1.0169254531667105 220 217 210
-1.4809368538908974 6.728004144968743 2.7210964912423488 41 42 36
-2.653381607025459 3.8073768130446353 0.772607167242922 243 234 217
0.5506284361288538 5.658974631311061 2.4978703821757744 30 33 28
-2.422442412162691 5.640544399883928 2.2215087580839112 213 176 149
-3.540436684094334 4.746260821086559 2.694952734223013 173 209 199
0.07893807450458169 6.97569487969158 2.999747162119104 48 47 42
-1.760783692097192 6.9135561692779985 3.4524989694703234 160 157 148
-1.5365628081988691 5.762647176447065 0.6929618306871548 55 56 48
-1.9981382120421989 7.579365427112781 1.452834153174515 44 43 38
2.261965296765567 4.2892311143628294 3.8881892178660644 90 85 79
-0.1194596944574022 7.304105095259738 1.0078016622300403 42 39 30
-1.7627701705131107 5.4444452096728 0.5939903209497863 61 62 55
1.4032635398664246 4.555695685539768 1.2286674448439405 41 34 24
1.2623149129945324 4.584579883112907 1.5377107862951154 78 35 39
-2.193021268120776 6.519690954044681 1.4714596097617516 57 57 50
-2.2852616410088933 5.8010556491972824 2.2705305180787905 209 172 144
0.09687817134435303 7.038414848710506 1.7891972242859069 179 176 162
1.7733036966934022 4.336308705105679 1.166463178926513 82 81 76
2.001605259453395 4.672130669674635 2.84490631925845 236 229 219
-1.4347300026417502 6.574117387898866 4.120420753016365 219 216 200
1.8080849227594302 4.540946612304228 3.6662982920117035 214 208 190
-1.2159478128636978 7.157241185017856 1.3898216729459416 53 60 81
-2.031753269911923 4.795088867439407 0.48377727862310543 77 78 70
-1.7429459740643245 6.860625115466927 3.7383464561202677 172 169 164
-1.7218663567740171 7.420753555468719 1.2991126927214678 54 56 54
2.0478346787860855 4.457729506536838 3.4017532047296455 79 129 159
-1.1304775161991165 6.4449985561954986 4.117612359873067 83 86 81
-2.285881103309292 5.68306815766372 2.5482752387885546 77 72 65
1.1396101609533706 4.791230122277656 0.999127345837308 56 53 46
-1.2082993280994374 7.84456689458365 1.3480852372505066 61 65 91
-1.3831248838930315 7.123218677257082 0.9509051611953169 52 51 46
1.4538248887956207 4.398983875979969 0.312518586362688 30 29 22
0.9032721745451165 5.1451028604288975 0.681103335217265 45 45 36
2.727659751264888 5.071427432193423 2.460059840914918 65 68 61
2.6272799629281556 5.119484311160032 2.463128635575348 66 71 64
0.9366413922791101 4.618773996260281 4.228430416905492 87 201 233
1.7344911864231791 4.408981415808709 1.0374372137981354 21 22 15
-1.3831248838930315 7.123218677257082 0.9509051611953169 52 51 46
-0.19007209439564043 5.93193047640289 4.858717393277041 174 170 150
-2.3910750158603737 5.617318996863437 2.4087982024849386 209 174 146
2.323716939938848 4.540302072510543 2.111138837678113 248 242 225
-1.7180626563250725 7.058211609761096 2.93492982000672 237 226 214
1.5477318770464992 4.566901006599921 0.9368113760549351 54 53 45
-2.095053820477474 6.973214769196842 1.0970863569879663 149 150 133
-1.910363733658638 6.34497912397453 2.4888784476351375 210 172 143
-1.9259931004991109 5.122872938724289 0.5418941349083366 66 67 59
-1.349026687713698 7.236032729350182 5.488277663970191 155 156 122
1.3490919402758612 4.503772763562858 1.5207185353999026 225 216 198
1.7194846645140842 4.368811610750221 1.1866007675068435 40 34 28
2.115682850552206 4.476368569678536 3.2501400558652227 250 242 227
1.9584691059770882 4.484271593245196 3.441341869160246 165 199 206
1.8294666406329276 4.535830123817712 3.562046551297018 213 210 191
-2.8256805962384672 5.125225613579987 1.9983908042744005 98 71 54
0.3074599731861771 5.144220225472841 0.44540836219543367 56 53 38
1.697261427414478 4.378775830735256 1.168114205416641 87 104 100
1.6201910351389666 4.446410527427119 1.1467197429223002 48 45 40
1.0373563030944397 4.799739785290669 0.07684515129727539 111 93 63
-3.2696481158756154 5.278201775630419 2.1421931595454686 154 200 190
-1.4623123339700532 6.87763057148943 3.392574672307152 231 228 219
-1.3786158898644638 6.835191632019622 2.8915215763217694 237 227 213
-0.9682340662648818 6.466360957199109 0.8468938182871452 52 49 41
0.6363974538827986 6.475129842516848 0.8443013313442255 51 57 39
-0.0659048262922385 7.34426169806254 2.1393165773583287 188 188 176
-1.628926753837888 5.60829817007235 0.6568722592706181 66 67 59
2.043877725115667 4.508650132257888 3.246442921001046 66 142 179
0.4512716384883012 6.2579939696970985 2.046414821890806 157 190 179
1.2288346372322962 4.56665400266589 0.3141883926626072 27 27 19
1.7780151307947782 4.204875232058645 1.3929138853805672 63 41 39
-2.7984233502990112 3.898775887229236 0.8199409215185963 203 199 172
2.036747593629645 4.510626581180263 3.212050011556389 229 227 220
1.7459884938115104 4.514919361517176 0.42578875378691494 213 208 202
-2.1188536246655096 5.921391194673673 2.5967797599826197 76 67 59
2.4169594877883607 4.521694993070825 2.0323317904470133 237 232 220
-2.8603568582743257 5.108775421069366 1.7204305930905748 123 168 161
1.4230529841555968 4.633512552235376 0.9106593761686774 43 40 31
-2.3247880634622087 5.838770686345125 2.167141368786545 185 146 115
-0.8787172039357928 6.377975270596818 3.7614171730458383 236 238 232
1.977233981863438 4.696683030358825 2.8418958144739626 231 228 213
1.0532603667911589 5.004780315106146 0.47963047382102547 41 41 33
0.42172984498909205 5.755629408746946 2.481830448064542 150 148 135
-0.8196012371453189 6.082509096458805 4.17570750864631 57 56 38
-0.0305615819436469 7.273401726686812 2.323428723156504 188 188 178
0.9555287226559613 5.397463544796957 2.3779241894861634 137 133 118
1.9186468752657986 4.8915493130836385 2.725203345890752 91 88 83
-1.9484331001104505 6.360888052770984 2.311498964825462 206 165 134
1.7092219640604072 5.9515248386750805 2.125393420129046 184 184 174
-1.5903701882526986 4.956890335338344 0.4643734456866422 50 51 43
-0.7372843375973901 6.855570948019005 5.094312520764793 49 50 44
-1.7837956052931234 6.656105130200771 2.49097858132023 209 169 143
0.23910295225609235 4.980679951247203 4.109051791563019 105 107 96
1.7868393610611346 4.673493105412011 0.8123389408029823 47 44 37
-1.906692095787808 7.163383199425884 3.193652491446245 38 39 33
1.6450426668126814 4.259960621974693 1.3737324650232312 34 33 25
-2.457799561849327 7.4538458537091525 1.0981802690605083 72 84 72
-2.7529933535470894 3.702492720508988 0.7599063458942849 136 140 127
2.307009986050935 4.354461727033366 3.330409738151788 89 115 123
-1.8956421950812916 6.434759172489673 4.528114853417188 36 42 38
0.8363899187392658 6.610656933656751 2.0381127881442085 135 135 111
-1.0662261448791877 6.566228796983303 3.4384491719086663 42 93 85
-2.807841231289075 5.076658390621547 2.059798877316433 67 55 36
-2.869433557824431 3.879326415308406 0.8483950834311387 115 121 102
-1.7383291882308303 6.333538965778117 4.270669967706441 221 220 212
1.0676857210806892 4.770358261112896 0.1527822432749077 41 35 23
2.149093112389504 4.598993774024256 2.7332186096091333 150 191 203
-2.0981597218424977 6.095420996943668 2.498496227767894 173 135 106
2.1501654008071847 4.866858227641475 -0.26701388290107164 46 44 32
-1.979028089981977 6.336657133493745 2.225132148636137 213 171 140
-2.1141580682086016 4.559411768150235 0.4121801795072537 74 75 65
-2.1732912423022555 4.438710792092627 0.3702297903033768 76 78 67
-1.3786158898644638 6.835191632019622 2.8915215763217694 237 227 213
2.048156531422658 4.826084113667644 -0.30038766352890306 41 41 33
2.210085577312496 4.3853537327264265 3.3653950438330424 82 110 120
-0.8267367892727954 6.372744520422198 2.7366773803618396 206 119 98
0.7915549214786313 5.596591211654293 2.6374661974979032 25 27 22
1.8552848164307336 4.570053674793419 3.4559266644248683 229 224 213
2.0492783945894235 4.708847693267006 2.287056990402375 180 200 204
-1.032326933629423 6.570997893822303 3.275942363849855 63 66 67
-1.9671906143109354 4.360172851325302 0.3531383719510597 55 56 48
-0.07214478130688744 7.464190816523483 1.728199955068775 181 182 167
-0.8046405058576743 7.858195838751063 1.1457955111783806 204 197 191
1.905848605298159 4.904461210901744 2.7741221416937 130 153 187
-0.12362295631647323 7.073927606409781 1.4501270857353763 59 33 20
-2.807101682392078 5.139583146476506 1.9684080065379934 201 167 140
0.870444783566161 4.932407829674498 1.5563159077671587 195 192 177
-1.9710706308990993 6.5416842351890105 2.125460748701207 206 165 133
-2.5657822905066525 7.1178141750082045 1.1228213276032195 72 81 65
1.1342572804782594 4.86597023982444 -0.3321936898102296 134 125 88
1.4712238841268124 4.522781274618864 0.42355258353754494 175 170 149
-1.8287990833176944 6.722606891402271 3.5297560296088184 187 183 172
-1.5817396812592968 7.248241113940979 1.4907830214916653 62 71 86
-0.2791381449316363 7.3744927740977335 1.0033672520880499 41 38 29
-1.9297003633354484 6.740847743374831 3.3696894580205394 215 218 210
1.1365752659227615 5.324039810848446 1.245853807998954 31 30 25
-2.035934542781603 4.62979194863282 0.3216319445524766 60 61 53
0.6723667633361168 6.456212655912803 0.6983532462646462 41 41 29
-1.659010992516273 7.369971142330727 1.5613976558342697 170 165 147
-1.5503836945014564 7.476407037293991 5.283064931363397 203 207 192
-2.0169994211539413 6.364007847034451 2.283191926040058 205 166 135
-0.1296919722008538 7.322942980137653 1.0780497850097657 49 49 39
-2.786595935465218 3.7494247017393674 0.8155080926203053 122 132 116
1.2804735292716245 4.703949054382768 1.2664294225207693 95 86 55
-1.7622396113092558 6.3187713167774735 4.355486692985092 226 229 222
0.3024104127412152 7.349382521383622 1.6170337136038975 192 190 177
1.9349794380566339 4.637194484957988 3.12849789037267 236 230 218
2.08955899715821 4.388680135637463 0.30944782669408927 30 29 21
0.8664144994708378 6.5434076718081045 2.019125530633901 136 134 109
-2.793402489121031 5.059529116913177 2.089368584327719 110 85 69
-1.7280444357345908 7.306457557194353 1.637004233059977 56 50 42
2.3862687400092226 4.439012269136183 2.2281470089250996 169 191 198
1.8043921026603298 4.303514515142855 1.2126661694495813 33 28 22
2.4169594877883607 4.521694993070825 2.0323317904470133 237 232 220
1.0236090413053807 5.3791840317913024 2.3553471794700402 233 227 217
0.8059562806989001 6.381345101334503 1.073254564073907 54 71 44
2.0911553374858443 4.4699443787684805 3.358321473762166 70 145 179
1.697261427414478 4.378775830735256 1.168114205416641 87 104 100
-2.0121356433988953 6.465050457643763 4.481350354903985 104 78 75
1.1052006522169269 5.292490851921425 2.3389241303908332 245 240 223
1.8945417440120944 4.920498721995338 2.546366847405893 16 18 13
-2.2325472658680545 4.468826366800547 0.3198661929472769 64 64 54
0.5664176256810731 5.953392455620242 4.838665707050292 136 220 255
-2.653381607025459 3.8073768130446353 0.772607167242922 243 234 217
-2.1158336110872193 7.317571680348682 1.1972746645041654 54 58 46
0.7958033761871331 6.428962488480432 0.6977788449214228 199 197 183
-2.0255800351242255 7.178788332116282 2.8764257946870377 45 46 40
-1.856099568097647 4.441762229178484 0.38243869267535957 71 72 64
-0.8482729131080281 6.291970343817552 0.7531388858602015 206 201 182
-1.670699868764958 6.828748871607129 2.33648227615788 203 162 134
0.005946682752095277 7.181148162719415 1.5048868980892207 145 89 33
1.1106406972355678 4.674504235819543 0.3228359058029081 26 23 15
-1.6122674444237441 7.388529787026079 1.331874006337239 128 129 111
-2.231488681623325 5.830350444961716 2.553291416629302 80 69 65
2.0175938366184316 4.52279988560846 3.1822273095448956 66 139 179
-1.7970824201968296 4.544237550805494 0.4015733249213678 58 59 51
-1.3509841721507134 7.5172597471274285 1.8157506543866992 100 110 46
2.2982834079796053 4.53557993698769 2.6430040474520564 74 110 133
1.6827099093734994 4.413986724592333 1.1161289511631483 43 43 36
-0.35626231594191204 5.4367139341430395 4.177386978382975 40 39 37
1.040755934848108 6.597703618012788 2.0168398322912386 157 154 135
-1.659010992516273 7.369971142330727 1.5613976558342697 170 165 147
0.461041938510255 7.206211042437432 1.071104626756627 188 182 156
-1.2510611640933056 6.717012914875787 2.775238949265487 209 200 187
2.12757845827937 4.503532768881904 3.1540413438199097 251 248 233
1.445737175462026 6.340371862823154 2.0704255585382856 197 197 187
-2.4667251070531977 5.4937048148412035 2.3603682117419917 211 175 149
-2.1188536246655096 5.921391194673673 2.5967797599826197 76 67 59
-1.349026687713698 7.236032729350182 5.488277663970191 155 156 122
1.3092214178548116 4.8012155868626545 1.618018899631987 241 234 226
-1.8361056618855978 6.910733791870652 1.8769306207726915 205 162 128
-0.545666993902815 6.004808510090465 3.0169188802933826 62 60 55
-2.3546103661595614 5.616182512963005 2.414576857504128 206 173 140
-0.8109099634422962 6.45084747809984 3.036499911525119 41 42 36
-0.3250890166197261 6.705128263827134 2.9457337330492894 32 35 28
1.7459884938115104 4.514919361517176 0.42578875378691494 213 208 202
-2.8232568533666353 5.154181230542608 1.8663929874128014 153 123 104
-3.396510143311351 4.542385433856569 3.27559632294909 187 188 179
1.8185458099403506 4.791718031470725 3.3997443975755113 79 78 64
-1.7180626563250725 7.058211609761096 2.93492982000672 237 226 214
-2.3099214840716575 6.903549868058202 3.6985043418629417 125 182 176
1.2285572789645538 4.933184069379407 0.4543079474334243 223 220 215
-1.801582862920756 7.372194618450434 1.0910217345794582 202 190 166
0.3087160879549568 6.974860431237996 2.304578167319965 195 195 185
-0.7534406455786505 6.042839332990398 0.7008200844019767 49 48 41
-3.396510143311351 4.542385433856569 3.27559632294909 187 188 179
-1.7711448613348186 7.075506335348056 2.993549885554503 120 60 49
-3.3617518425288715 4.901456643775933 1.261170098079674 168 202 186
-1.4599994481497125 6.56550063180949 4.056151139201162 231 225 215
2.643914567619493 4.962413617204678 2.378604835212305 73 76 67
-2.798991341480257 5.094951246651499 2.095639881563873 202 171 149
0.7450257698437688 6.49303492038953 0.996313963764629 238 239 226
-2.2011405527373675 7.16902742972496 3.2096720936846754 67 99 83
0.688006875020421 6.542514495253114 1.013705000898369 55 63 37
2.130472837935464 4.4993284414706425 3.156678490518599 252 245 224
-1.3230580918330417 6.573499487523861 3.5612159883595296 241 241 229
-2.231488681623325 5.830350444961716 2.553291416629302 80 69 65
-0.058448962980265314 7.335027363299482 1.627664747190092 167 166 150
2.5833079285758234 5.151978201996632 2.483845123754436 63 66 59
-2.5781558342790984 5.380663380156875 2.352074201239759 208 173 144
1.3313261952656161 4.7282017151271285 0.9855728357127138 57 54 45
1.8983101762235717 4.411148695549371 0.6843568326001892 26 25 20
-2.473788450021848 5.528785187759711 2.241672369003493 214 179 151
2.0175938366184316 4.52279988560846 3.1822273095448956 66 139 179
-1.6046789290628036 7.002011062045056 3.4204819020579147 66 65 60
-1.0727691043716194 7.081175099366714 5.123362365126469 214 213 193
-1.4745957206313467 7.318011849432475 1.6381903978358718 122 108 68
0.004054976678110371 7.265633210350848 2.266559499652889 192 192 181
-1.7329933448117016 5.286258275773558 0.5751297740349012 58 59 53
-2.37939267238865 7.317366278364134 0.9680735214017779 53 55 48
1.7883475893063687 6.174056738157039 1.940232282180518 191 193 182
0.11904829957109105 7.298108053851385 1.3896994730857473 34 33 28
-2.634668167442424 3.6859896270704415 0.7392812786755264 243 236 218
-1.9050713129323253 4.345842170550238 0.34000177153345484 60 61 53
0.026385004714506593 7.130755955878806 1.1803861462074081 102 95 79
2.0976432788320567 4.539899321046637 3.1169863269278077 65 149 195
1.460395781826366 4.61709159142488 0.9573802848382015 58 55 46
-2.3392679733568635 5.800309034961665 2.120847519496448 218 182 148
0.4919316690688754 6.297921970424743 2.1285973295127367 50 52 41
1.879443058920133 4.484198288466313 3.698584359828758 37 38 33
-2.773425683474826 3.580082067431706 0.6392597139686234 185 185 171
-2.82235012905234 3.878574430691325 0.861516993476067 120 123 102
1.8240562183310882 4.2674342195453345 1.2932183858092081 32 29 22
-1.0828859060423095 6.470371977799818 0.794858219017239 196 189 171
-2.372371340096141 5.687370995134664 2.2184534834591667 210 174 147
2.143934974831584 4.487362801035739 3.2221405600370185 74 163 205
0.3695940997764371 5.057710745180954 3.9633271962180654 245 242 217
2.036747593629645 4.510626581180263 3.212050011556389 229 227 220
-1.5424908537532511 7.272516737534245 1.5654282033053817 170 164 140
1.9023423085693958 4.8235112859136295 2.402104379019975 87 144 154
2.689007466360323 4.879907492577114 0.393336777436421 21 21 13
-2.2070187985460654 4.468990478284214 0.287875666230888 59 59 49
0.1220071039275232 7.177293997614436 0.9767203053672406 47 44 35
1.0606735700578678 4.734613485395917 1.3586329319009183 53 53 45
2.2465682691273323 4.574725542894439 2.666067633858068 58 152 200
-2.4884618246455643 8.507999867202063 -2.050490829176232 77 51 28
1.993994920592388 4.226902595635602 1.17179574617592 39 36 29
-2.4735375432541824 8.377313497477168 -1.8942721877549142 110 95 66
1.5103345083477213 4.446662829864038 1.1006940693132088 24 25 19
0.4589619566064874 6.351772391479982 1.9058095619301174 41 44 35
1.0921345590855012 4.739312229515796 1.2611232735443592 21 23 18
-2.620593517524257 5.283343139835756 2.3242811959172545 209 176 150
-2.422836877182965 5.546635681252297 2.481745519402292 75 68 60
-1.6640905916388107 7.605312673009626 3.190961341405315 67 44 38
-0.05490821477223561 7.151319733922353 1.4716535093218497 38 38 26
-1.2781927921604277 7.507490492904261 1.3017830938048645 59 64 93
-0.4095397239104778 5.597485934093756 4.054799284687865 116 118 113
1.7593844155603142 6.1682654285502965 2.019896497071803 196 196 188
-2.0906042349038576 6.449259794557168 4.5936294175956 58 75 69
2.1049407648571488 4.472256600022645 3.359907435748725 79 143 162
0.2581638913996957 6.846833200042575 2.9895131009027764 168 162 134
1.6018459515998185 4.470334871330994 1.2284080202603709 38 34 25
-2.252212881314814 7.131114279419701 3.287772498320447 101 153 146
1.8159372466995214 5.12684450295039 0.6116459177051743 31 31 23
2.224546228074623 4.219336406974262 4.070007871083693 98 149 215
-2.1810126417393434 5.780503793128463 2.3223272297852886 207 170 141
-2.3225205752048215 7.367816045150996 2.9583394008142063 111 168 161
1.2062220126010914 4.532161798764443 1.4657822913039782 47 44 38
1.2200025855750767 4.796022260506223 -0.33588312314325536 160 149 113
1.2704006757929824 4.6079642682735376 0.40320997922990837 168 166 143
-0.6426418731295822 7.935012023228818 1.1632467351108178 68 65 50
